NCOLS 169
NROWS 64
XLLCORNER 334459.8
YLLCORNER 6376690.5
CELLSIZE 100 
NODATA_value -9999 
-9999 -9999 -9999 -9999 -9999 -9999 -9999 -9999 -9999 -9999 -9999 89.453835 91.493408 95.005943 89.593193 82.533905 79.175568 75.142761 70.197731 66.975677 63.400677 60.968552 60.316753 59.76218 58.97097 61.106163 68.820938 71.66304 72.91214 75.614403 79.592499 81.570374 85.778709 91.285339 95.029823 99.012756 100.005798 97.280472 90.150085 89.578987 86.633804 84.942558 88.051285 92.735733 92.977615 89.538544 88.017761 88.453545 91.023689 95.944679 86.403313 79.099022 75.10672 77.117302 75.640434 70.851685 66.384811 62.614033 60.500103 60.840015 60.830711 59.383652 57.133873 54.563572 52.092743 49.523739 50.026379 54.491741 58.705624 61.607704 62.621346 62.548473 65.743675 71.158493 -9999 -9999 -9999 -9999 -9999 -9999 -9999 -9999 -9999 -9999 -9999 -9999 -9999 -9999 -9999 -9999 -9999 -9999 -9999 -9999 -9999 -9999 -9999 -9999 -9999 -9999 -9999 -9999 -9999 -9999 -9999 -9999 -9999 -9999 -9999 -9999 -9999 -9999 -9999 -9999 -9999 -9999 -9999 -9999 -9999 -9999 -9999 -9999 -9999 -9999 -9999 -9999 -9999 -9999 -9999 -9999 -9999 -9999 -9999 -9999 -9999 -9999 -9999 -9999 -9999 -9999 -9999 -9999 -9999 -9999 -9999 -9999 -9999 -9999 -9999 -9999 -9999 -9999 -9999 -9999 -9999 -9999 -9999 -9999 -9999 -9999 -9999 -9999 -9999 -9999 -9999 -9999 -9999 -9999 -9999
-9999 -9999 -9999 -9999 -9999 -9999 -9999 -9999 -9999 -9999 -9999 90.091072 93.218643 98.827599 95.164932 86.385437 80.508347 74.678528 69.596283 66.272438 63.828724 61.670776 60.086842 58.959557 61.005684 63.376438 64.440994 68.871735 72.312347 75.895813 80.558517 83.320755 88.024277 91.045921 92.336487 93.771683 95.567299 95.228989 93.069405 92.22863 90.131577 90.135658 89.478622 94.780289 95.067596 91.160667 87.031616 81.269333 82.532082 89.827156 88.34243 81.006424 74.013641 70.010986 69.309937 67.487091 65.427078 62.302982 61.054256 61.051552 60.363022 58.286442 55.213612 53.158909 51.040722 49.32848 50.899471 55.725674 61.0597 64.769234 66.505989 66.394463 67.867096 70.077141 78.277763 80.011131 67.200134 57.840199 53.244198 49.520134 45.417835 -9999 -9999 -9999 -9999 -9999 -9999 -9999 -9999 -9999 -9999 -9999 -9999 -9999 -9999 -9999 -9999 -9999 -9999 -9999 -9999 -9999 -9999 -9999 -9999 -9999 -9999 -9999 -9999 -9999 -9999 -9999 -9999 -9999 -9999 -9999 -9999 -9999 -9999 -9999 -9999 -9999 -9999 -9999 -9999 -9999 -9999 -9999 -9999 -9999 -9999 -9999 -9999 -9999 -9999 -9999 -9999 -9999 -9999 -9999 -9999 -9999 -9999 -9999 -9999 -9999 -9999 -9999 -9999 -9999 -9999 -9999 -9999 -9999 -9999 -9999 -9999 -9999 -9999 -9999 -9999 -9999 -9999 -9999 -9999 -9999 -9999 -9999 -9999
-9999 -9999 -9999 -9999 -9999 -9999 -9999 -9999 -9999 -9999 84.450386 85.258301 88.038475 91.858215 94.525513 89.542946 80.855713 73.871246 68.110512 64.245209 61.878384 60.400085 60.017612 61.64201 63.932487 68.503632 68.620903 67.192467 68.71994 70.067383 74.296196 78.192253 81.750198 83.593712 85.12719 87.674194 89.762451 92.328606 95.107964 96.952415 96.283691 94.963173 92.757545 96.652557 99.744102 97.884995 92.07843 83.698723 77.035545 79.632599 80.749924 78.513809 73.586136 69.850662 66.374771 64.196297 62.759338 61.904099 60.408073 59.961987 58.744804 55.90773 52.768105 50.983284 50.332024 52.872955 53.405079 57.462044 62.853916 67.245506 71.293846 72.55159 74.031364 73.259338 79.169556 80.138046 69.214523 60.884819 53.6432 48.229084 44.125881 41.2841 41.848919 39.968399 41.072609 40.410213 30.042938 33.344498 -9999 -9999 -9999 -9999 -9999 -9999 -9999 -9999 -9999 -9999 -9999 -9999 -9999 -9999 -9999 -9999 -9999 -9999 -9999 -9999 -9999 -9999 -9999 -9999 -9999 -9999 -9999 -9999 -9999 -9999 -9999 -9999 -9999 -9999 -9999 -9999 -9999 -9999 -9999 -9999 -9999 -9999 -9999 -9999 -9999 -9999 -9999 -9999 -9999 -9999 -9999 -9999 -9999 -9999 -9999 -9999 -9999 -9999 -9999 -9999 -9999 -9999 -9999 -9999 -9999 -9999 -9999 -9999 -9999 -9999 -9999 -9999 -9999 -9999 -9999 -9999 -9999 -9999 -9999 -9999 -9999
-9999 -9999 -9999 -9999 -9999 -9999 -9999 -9999 -9999 -9999 78.527542 80.275711 83.264008 84.495277 83.816635 78.551544 73.187683 68.869583 64.559891 61.567875 60.633904 59.647171 60.80719 64.171158 67.225021 71.257446 74.759903 72.268341 71.452179 74.560089 74.225197 74.48394 76.928528 79.963165 83.952072 88.847992 92.162277 95.610573 100.06118 103.598785 102.922661 100.721725 99.003876 98.92115 97.421165 96.187462 93.670097 86.87088 78.74733 70.978096 70.810051 69.010445 67.314743 66.090294 64.020477 62.093807 60.604366 59.800064 58.80146 56.490692 54.250996 52.837009 52.100456 54.212677 54.566265 59.814529 57.932411 58.381035 63.366425 68.569687 75.209579 80.568733 81.411552 80.084419 81.727325 75.954361 64.459763 57.734795 51.989765 48.788857 46.308807 44.402264 42.605358 41.168964 41.184376 36.019367 30.154686 36.55267 44.164268 50.585667 51.7202 51.008408 47.648148 49.782055 -9999 -9999 -9999 -9999 -9999 -9999 -9999 -9999 -9999 -9999 -9999 -9999 -9999 -9999 -9999 -9999 -9999 -9999 -9999 -9999 -9999 -9999 -9999 -9999 -9999 -9999 -9999 -9999 -9999 -9999 -9999 -9999 -9999 -9999 -9999 -9999 -9999 -9999 -9999 -9999 -9999 -9999 -9999 -9999 -9999 -9999 -9999 -9999 -9999 -9999 -9999 -9999 -9999 -9999 -9999 -9999 -9999 -9999 -9999 -9999 -9999 -9999 -9999 -9999 -9999 -9999 -9999 -9999 -9999 -9999 -9999 -9999 -9999 -9999 -9999
-9999 -9999 -9999 -9999 -9999 -9999 -9999 -9999 -9999 -9999 76.387138 76.264801 78.132607 77.507164 74.974411 69.740616 64.365654 63.036755 62.399963 62.877636 62.122749 59.929676 60.694653 63.798183 67.701935 72.764938 78.676132 79.511536 76.269005 80.03228 82.292747 78.400558 77.552216 81.463982 84.365585 88.686333 91.272606 94.665047 102.06768 108.679932 106.081039 101.839554 106.317497 103.234123 91.370331 88.351997 87.893929 88.034157 82.737122 77.107529 75.138306 74.020149 72.772041 70.356178 67.208588 63.862015 61.537041 59.933857 58.075699 56.332535 54.268257 53.184486 55.759041 60.410164 58.193836 61.639927 59.398369 58.403454 62.20335 67.283691 72.864563 81.725853 88.716759 88.762215 86.955696 76.202568 64.9757 59.12714 54.800735 50.002697 46.37986 41.822468 40.502468 39.938251 35.915516 29.875084 33.406242 39.185078 44.567726 48.759506 46.774776 45.125607 42.591465 46.683853 45.808128 -9999 -9999 -9999 -9999 -9999 -9999 -9999 -9999 -9999 -9999 -9999 -9999 -9999 -9999 -9999 -9999 -9999 -9999 -9999 -9999 -9999 -9999 -9999 -9999 -9999 -9999 -9999 -9999 -9999 -9999 -9999 -9999 -9999 -9999 -9999 -9999 -9999 -9999 -9999 -9999 -9999 -9999 -9999 -9999 -9999 -9999 -9999 -9999 -9999 -9999 -9999 -9999 -9999 -9999 -9999 -9999 -9999 -9999 -9999 -9999 -9999 -9999 -9999 -9999 -9999 -9999 -9999 -9999 -9999 -9999 -9999 -9999 -9999 -9999
-9999 -9999 -9999 -9999 -9999 -9999 -9999 -9999 -9999 -9999 75.209084 73.203453 71.854858 70.192917 66.434296 64.26136 64.447189 64.609253 65.40287 65.645355 62.453598 60.321632 61.811142 63.453793 67.14035 72.134666 77.667343 82.494804 83.183434 82.881454 88.754997 85.278351 79.008232 79.612007 80.436905 85.383125 89.397362 92.213478 98.053688 104.105186 102.04805 95.357819 98.621704 103.171204 94.955048 86.423759 79.426804 79.424248 78.393539 75.270035 75.166656 76.688614 74.70211 70.530922 68.087181 65.34108 62.637703 60.104565 60.271923 58.496704 54.988743 55.558804 60.240524 62.033947 59.93446 63.955067 60.000126 60.691608 65.360771 70.974052 75.775658 83.852203 93.914055 99.064362 93.859222 77.601242 66.522682 60.709637 51.90646 47.216553 44.11462 40.997772 37.001358 34.737823 30.426374 31.332031 38.305779 41.433788 41.571442 39.249287 35.354412 33.616364 36.425686 39.927197 43.320171 40.834175 -9999 -9999 -9999 -9999 -9999 -9999 -9999 -9999 -9999 -9999 -9999 -9999 -9999 -9999 -9999 -9999 -9999 -9999 -9999 -9999 -9999 -9999 -9999 -9999 -9999 -9999 -9999 -9999 -9999 -9999 -9999 -9999 -9999 -9999 -9999 -9999 -9999 -9999 -9999 -9999 -9999 -9999 -9999 -9999 -9999 -9999 -9999 -9999 -9999 -9999 -9999 -9999 -9999 -9999 -9999 -9999 -9999 -9999 -9999 -9999 -9999 -9999 -9999 -9999 -9999 -9999 -9999 -9999 -9999 -9999 -9999 -9999 -9999
-9999 -9999 -9999 -9999 -9999 -9999 -9999 -9999 -9999 -9999 73.792114 71.55468 68.164009 65.341499 66.194038 67.756737 67.91922 68.738052 69.375847 66.296631 61.921062 61.5425 63.709702 66.51738 67.760872 69.46344 73.735306 80.292595 87.000542 91.174568 93.689362 90.449944 82.180214 83.606148 86.071083 89.473068 95.614059 100.102234 102.000061 107.340584 101.787628 90.980591 91.310532 97.843391 96.510704 88.478127 80.95858 73.53553 70.314331 69.425049 68.462181 67.666046 67.341118 65.594063 63.642529 62.038853 60.682877 60.818707 61.6451 57.252823 57.006718 60.879204 64.595619 65.468002 63.777721 67.415321 62.809254 61.31155 65.85305 69.719658 75.983101 83.477982 91.211899 97.609802 83.866753 70.053955 63.027554 56.550457 49.576077 44.28558 40.182247 37.909271 33.831192 32.398834 29.621853 29.614067 33.548759 35.17989 31.369982 29.901789 30.932142 29.741756 30.958515 35.297226 39.369434 39.016853 42.593498 -9999 -9999 -9999 -9999 -9999 -9999 -9999 -9999 -9999 -9999 -9999 -9999 -9999 -9999 -9999 -9999 -9999 -9999 -9999 -9999 -9999 -9999 -9999 -9999 -9999 -9999 -9999 -9999 -9999 -9999 -9999 -9999 -9999 -9999 -9999 -9999 -9999 -9999 -9999 -9999 -9999 -9999 -9999 -9999 -9999 -9999 -9999 -9999 -9999 -9999 -9999 -9999 -9999 -9999 -9999 -9999 -9999 -9999 -9999 -9999 -9999 -9999 -9999 -9999 -9999 -9999 -9999 -9999 -9999 -9999 -9999 -9999
-9999 -9999 -9999 -9999 -9999 -9999 -9999 -9999 -9999 -9999 72.227905 69.846992 66.407875 67.65831 69.915092 72.136551 72.259804 73.6287 71.012466 65.334312 61.751842 63.236351 66.018456 69.277245 72.009811 71.705055 73.805901 81.09166 87.654686 94.441162 99.708366 96.137642 87.291862 87.907158 93.681984 93.159492 98.126633 108.9272 111.37001 111.399055 107.408821 94.979385 87.657326 89.438362 91.654076 85.225052 78.630638 72.579086 72.963509 76.477547 74.662506 71.011543 68.291916 66.084488 63.794029 64.078201 64.401947 65.425667 62.710735 57.884842 61.022598 64.696945 68.468933 69.740974 68.203941 71.151215 67.722755 63.356274 68.503113 73.351448 75.851349 81.625198 89.859627 88.699173 77.270546 67.215141 60.897022 54.358727 48.696663 45.155277 41.43491 36.543629 34.612019 38.699017 34.828518 33.348652 31.400869 30.531403 31.055315 34.52652 38.486294 35.633366 29.697321 31.842264 34.573807 37.15509 39.524113 -9999 -9999 -9999 -9999 -9999 -9999 -9999 -9999 -9999 -9999 -9999 -9999 -9999 -9999 -9999 -9999 -9999 -9999 -9999 -9999 -9999 -9999 -9999 -9999 -9999 -9999 -9999 -9999 -9999 -9999 -9999 -9999 -9999 -9999 -9999 -9999 -9999 -9999 -9999 -9999 -9999 -9999 -9999 -9999 -9999 -9999 -9999 -9999 -9999 -9999 -9999 -9999 -9999 -9999 -9999 -9999 -9999 -9999 -9999 -9999 -9999 -9999 -9999 -9999 -9999 -9999 -9999 -9999 -9999 -9999 -9999 -9999
-9999 -9999 -9999 -9999 -9999 -9999 -9999 -9999 -9999 -9999 72.096298 69.271385 67.203018 71.678909 74.679466 77.017296 78.329102 77.655823 70.692078 64.245018 62.235374 64.475922 67.360695 70.651474 75.152092 76.395325 75.750671 79.0177 85.123909 92.235115 98.803452 99.637405 93.030968 89.369194 95.264214 99.551163 101.11274 109.345398 110.598305 107.896423 103.504669 97.181038 89.363495 82.537277 82.771873 78.688614 74.754005 75.163971 82.033188 86.801315 82.543671 76.915207 72.543846 68.629173 68.291939 71.795189 72.799797 69.122025 63.687679 59.042973 61.705917 66.702866 70.885422 72.959953 72.711945 74.705048 69.232788 65.837044 71.192375 78.525497 82.962143 85.260681 89.533234 78.451347 67.313881 64.577141 61.775162 57.53458 51.610142 45.582726 38.603893 35.470776 40.360085 40.874973 41.780361 41.861855 40.145267 40.407532 36.631992 38.024139 41.923077 38.355633 29.784094 33.104298 38.305592 40.267345 41.490826 -9999 -9999 -9999 -9999 -9999 -9999 -9999 -9999 -9999 -9999 -9999 -9999 -9999 -9999 -9999 -9999 -9999 -9999 -9999 -9999 -9999 -9999 -9999 -9999 -9999 -9999 -9999 -9999 -9999 -9999 -9999 -9999 -9999 -9999 -9999 -9999 -9999 -9999 -9999 -9999 -9999 -9999 -9999 -9999 -9999 -9999 -9999 -9999 -9999 -9999 -9999 -9999 -9999 -9999 -9999 -9999 -9999 -9999 -9999 -9999 -9999 -9999 -9999 -9999 -9999 -9999 -9999 -9999 -9999 -9999 -9999 -9999
-9999 -9999 -9999 -9999 -9999 -9999 -9999 -9999 -9999 73.196838 72.111794 68.655113 69.790398 75.391418 79.510574 83.032288 84.578423 80.738998 72.563126 65.116219 62.86042 65.836639 69.54525 73.669159 78.101517 82.010101 80.932205 79.519127 81.127434 87.550865 94.219307 99.851852 98.566879 92.581482 95.262543 99.921249 108.241165 103.05452 101.191177 101.731461 93.426979 92.074577 87.124397 81.189987 76.783554 75.84491 76.836876 82.91568 93.685829 93.104645 84.160622 77.329933 73.963264 72.014717 74.865242 79.147926 76.496323 69.265091 63.283558 59.523922 61.119072 66.111435 70.578041 74.957314 78.151566 78.330894 70.273918 68.403717 73.703529 81.476158 88.150261 90.585442 88.861702 74.638145 62.958401 57.473236 53.588776 51.485691 48.062729 41.915813 36.8964 41.834213 48.172176 48.529488 49.671192 48.101654 46.347336 44.60017 41.671635 40.06929 41.322975 35.505016 29.986666 35.007427 40.539299 43.794582 46.383553 48.298203 -9999 -9999 -9999 -9999 -9999 -9999 -9999 -9999 -9999 -9999 -9999 -9999 -9999 -9999 -9999 -9999 -9999 -9999 -9999 -9999 -9999 -9999 -9999 -9999 -9999 -9999 -9999 -9999 -9999 -9999 -9999 -9999 -9999 -9999 -9999 -9999 -9999 -9999 -9999 -9999 -9999 -9999 -9999 -9999 -9999 -9999 -9999 -9999 -9999 -9999 -9999 -9999 -9999 -9999 -9999 -9999 -9999 -9999 -9999 -9999 -9999 -9999 -9999 -9999 -9999 -9999 -9999 -9999 -9999 -9999 -9999
-9999 -9999 -9999 -9999 -9999 -9999 -9999 -9999 -9999 71.333458 70.071747 68.011047 70.79538 77.40052 83.295784 88.859047 90.02372 83.283493 73.813759 66.471924 63.690899 66.987854 71.477043 76.400055 82.238342 88.643051 86.895752 84.657639 85.208954 85.538025 90.077217 96.515327 100.566582 99.829552 99.752525 101.512566 102.894638 96.726677 93.089645 95.538147 91.439095 85.119545 80.366478 78.54715 80.373123 83.015755 82.906021 84.130188 92.891441 91.89933 83.491936 77.268166 75.77906 76.354027 79.909508 79.623268 73.594475 66.370171 61.315922 60.469753 61.326141 63.959053 69.370567 73.952209 78.974968 79.916397 72.560753 70.231888 75.493111 81.999054 88.974609 91.551048 81.459167 70.637169 63.020081 55.285404 48.548729 45.687283 42.761539 38.906902 39.193394 48.159718 55.388351 57.625088 58.231964 55.303085 51.603657 47.221672 43.324444 41.801342 40.747803 34.288082 29.928329 33.870564 39.536057 43.947586 47.827194 50.411549 51.398476 54.03809 52.940735 -9999 -9999 -9999 -9999 -9999 -9999 -9999 -9999 -9999 -9999 -9999 -9999 -9999 -9999 -9999 -9999 -9999 -9999 -9999 -9999 -9999 -9999 -9999 -9999 -9999 -9999 -9999 -9999 -9999 -9999 -9999 -9999 -9999 -9999 -9999 -9999 -9999 -9999 -9999 -9999 -9999 -9999 -9999 -9999 -9999 -9999 -9999 -9999 -9999 -9999 -9999 -9999 -9999 -9999 -9999 -9999 -9999 -9999 -9999 -9999 -9999 -9999 -9999 -9999 -9999 -9999 -9999 -9999
-9999 -9999 -9999 -9999 -9999 -9999 -9999 -9999 -9999 71.309738 69.89547 68.117676 71.775368 78.799324 85.241982 90.511543 91.029739 81.85096 73.494499 67.270058 64.558495 67.299385 72.221931 76.996704 82.280464 89.813347 92.378479 90.803093 93.455147 91.169731 89.646011 93.465454 99.548347 106.095123 108.281319 103.611481 97.749214 93.165268 88.567574 88.879372 89.344872 83.424965 79.826363 82.586288 89.309631 92.766243 91.875023 88.462692 86.597267 83.711502 80.362366 77.36058 76.923996 79.944061 81.654747 76.017166 67.990967 63.195038 63.165493 65.742569 66.07695 64.693436 66.064209 71.645027 78.044426 80.348709 75.293945 72.903191 78.885674 84.269203 90.140488 88.615311 74.228531 63.262318 58.40144 55.044453 51.93145 48.682144 42.768333 38.70628 41.598347 48.680458 57.448116 62.13805 62.362453 60.331081 53.066116 47.292297 44.603683 43.261959 40.998489 34.841663 30.765488 31.330862 37.281815 41.757721 45.833679 50.143501 53.030682 57.139587 55.04459 52.840919 -9999 -9999 -9999 -9999 -9999 -9999 -9999 -9999 -9999 -9999 -9999 -9999 -9999 -9999 -9999 -9999 -9999 -9999 -9999 -9999 -9999 -9999 -9999 -9999 -9999 -9999 -9999 -9999 -9999 -9999 -9999 -9999 -9999 -9999 -9999 -9999 -9999 -9999 -9999 -9999 -9999 -9999 -9999 -9999 -9999 -9999 -9999 -9999 -9999 -9999 -9999 -9999 -9999 -9999 -9999 -9999 -9999 -9999 -9999 -9999 -9999 -9999 -9999 -9999 -9999 -9999 -9999
-9999 -9999 -9999 -9999 -9999 -9999 -9999 -9999 -9999 72.429291 70.76799 69.075386 73.519966 79.936409 86.68679 91.249329 90.433968 81.297417 73.784813 67.913483 65.350777 69.544357 75.034332 80.721283 84.419731 90.527931 96.099709 96.543816 98.922913 97.116676 94.633629 96.205658 97.600159 103.168755 108.498039 104.136757 95.717911 89.087318 87.497932 85.875076 83.09304 81.638168 86.820534 87.264038 91.678757 99.573044 98.231255 92.274757 86.700768 82.897934 79.980598 78.353447 79.883186 82.425674 80.537842 74.178787 65.216591 64.787498 68.266197 71.688515 72.646606 70.072701 66.288918 69.521652 76.758614 80.540108 77.843307 77.195908 81.819427 88.91275 91.894333 88.210594 75.732872 67.295296 63.751072 59.87735 54.496151 48.032581 40.657909 43.34145 50.443134 49.008881 53.379475 61.009182 62.638535 60.393444 52.29089 47.853039 47.684967 45.102711 40.693451 37.934128 35.516079 30.331188 35.579628 41.714767 46.395172 49.957653 54.332119 59.207817 57.918892 56.031227 -9999 -9999 -9999 -9999 -9999 -9999 -9999 -9999 -9999 -9999 -9999 -9999 -9999 -9999 -9999 -9999 -9999 -9999 -9999 -9999 -9999 -9999 -9999 -9999 -9999 -9999 -9999 -9999 -9999 -9999 -9999 -9999 -9999 -9999 -9999 -9999 -9999 -9999 -9999 -9999 -9999 -9999 -9999 -9999 -9999 -9999 -9999 -9999 -9999 -9999 -9999 -9999 -9999 -9999 -9999 -9999 -9999 -9999 -9999 -9999 -9999 -9999 -9999 -9999 -9999 -9999 -9999
-9999 -9999 -9999 -9999 -9999 -9999 -9999 -9999 -9999 72.796364 69.903954 69.730736 75.354782 81.392212 86.99865 90.952385 89.669624 81.187134 73.786598 68.034378 66.134415 69.583679 74.103607 81.678268 86.554024 91.138451 94.995049 99.052147 101.336868 101.313004 99.514458 101.90892 102.133133 103.901535 102.491554 98.418312 93.199753 90.674103 92.315094 92.344727 86.743874 88.823013 95.376091 97.135376 95.876175 101.248817 101.965401 96.636223 91.241409 88.742844 82.307137 81.668274 87.038383 84.788048 75.623985 69.65921 65.759735 68.580772 74.713394 79.104027 78.678856 74.686554 68.804276 69.435349 75.434219 80.228424 80.036438 81.509651 86.564903 90.808937 87.757736 79.858185 72.456245 70.63974 65.439209 58.466484 51.447784 44.143921 41.749474 51.55711 58.393955 58.360435 55.777176 59.408646 61.894875 59.281219 51.277943 51.10783 50.729225 45.736042 41.041504 41.998272 38.407352 30.581451 35.935379 43.446087 49.444 50.533405 53.251907 59.206593 58.532921 57.809238 -9999 -9999 -9999 -9999 -9999 -9999 -9999 -9999 -9999 -9999 -9999 -9999 -9999 -9999 -9999 -9999 -9999 -9999 -9999 -9999 -9999 -9999 -9999 -9999 -9999 -9999 -9999 -9999 -9999 -9999 -9999 -9999 -9999 -9999 -9999 -9999 -9999 -9999 -9999 -9999 -9999 -9999 -9999 -9999 -9999 -9999 -9999 -9999 -9999 -9999 -9999 -9999 -9999 -9999 -9999 -9999 -9999 -9999 -9999 -9999 -9999 -9999 -9999 -9999 -9999 -9999 -9999
-9999 -9999 -9999 -9999 -9999 -9999 -9999 -9999 -9999 72.667465 70.054352 71.084389 77.806099 83.255058 88.385384 91.404678 89.275436 80.547836 73.520378 67.78952 67.230057 71.676971 73.373634 76.033966 79.887184 82.559357 85.749146 91.753227 98.338371 100.146492 102.79747 107.726517 109.361977 107.528389 99.324776 96.192497 97.11953 98.674568 97.995163 98.374802 90.059563 89.556343 97.355545 105.690025 106.736732 106.094872 102.425507 97.446022 93.915451 90.165695 84.646576 83.503143 86.626442 84.026978 77.616272 71.207253 67.163498 68.543694 75.085426 81.061951 82.331955 78.556892 70.708389 68.89167 72.334244 78.57283 82.834183 85.086777 91.244484 95.325806 82.183876 69.878296 65.382828 63.54356 62.357964 57.487774 49.688774 43.832626 45.582203 51.727051 60.530945 63.777596 62.41972 61.475765 62.708405 59.59272 57.078426 56.148907 50.61961 45.732933 44.467594 44.658703 38.229549 30.740856 35.727089 43.295616 48.674065 50.649925 53.485504 56.151653 56.132301 56.091679 -9999 -9999 -9999 -9999 -9999 -9999 -9999 -9999 -9999 -9999 -9999 -9999 -9999 -9999 -9999 -9999 -9999 -9999 -9999 -9999 -9999 -9999 -9999 -9999 -9999 -9999 -9999 -9999 -9999 -9999 -9999 -9999 -9999 -9999 -9999 -9999 -9999 -9999 -9999 -9999 -9999 -9999 -9999 -9999 -9999 -9999 -9999 -9999 -9999 -9999 -9999 -9999 -9999 -9999 -9999 -9999 -9999 -9999 -9999 -9999 -9999 -9999 -9999 -9999 -9999 -9999 -9999
-9999 -9999 -9999 -9999 -9999 -9999 -9999 -9999 72.275497 71.162025 70.387642 72.387154 79.081268 85.042923 89.791962 91.744438 88.524529 79.120644 72.474419 66.696671 69.361588 74.755226 79.397552 81.334282 81.401634 82.666954 82.828568 85.55011 88.919502 91.396408 98.953918 107.052536 110.306442 104.890572 99.696342 100.129349 101.673515 106.978447 100.698906 100.268013 94.301109 91.869766 95.112526 101.879547 107.870689 106.265701 99.793869 92.802704 90.052063 88.069511 81.589264 78.964676 78.17382 78.595245 76.437866 71.93602 68.269676 71.091576 75.471405 79.997719 84.448242 79.587791 70.960686 71.365059 75.592476 81.54493 87.816223 91.557846 95.746132 97.905556 80.978523 69.813492 62.749474 58.194942 56.54966 53.886265 47.300724 48.248047 52.291607 49.912132 57.468616 64.18766 68.558701 68.598961 66.39814 62.330589 62.077625 58.573605 50.989391 47.888721 48.966202 44.847038 37.981236 30.525805 35.009762 41.686638 46.432526 49.572777 50.970192 53.782528 52.520702 -9999 -9999 -9999 -9999 -9999 -9999 -9999 -9999 -9999 -9999 -9999 -9999 -9999 -9999 -9999 -9999 -9999 -9999 -9999 -9999 -9999 -9999 -9999 -9999 -9999 -9999 -9999 -9999 -9999 -9999 -9999 -9999 -9999 -9999 -9999 -9999 -9999 -9999 -9999 -9999 -9999 -9999 -9999 -9999 -9999 -9999 -9999 -9999 -9999 -9999 -9999 -9999 -9999 -9999 -9999 -9999 -9999 -9999 -9999 -9999 -9999 -9999 -9999 -9999 -9999 -9999 -9999 -9999
-9999 -9999 -9999 -9999 -9999 -9999 -9999 -9999 71.841553 71.689674 72.390709 75.40979 78.515114 84.454933 90.749664 91.210136 86.670082 78.325294 72.810989 67.943169 69.497498 75.06485 82.698601 89.439545 90.454025 92.462555 94.13974 91.616562 90.700836 94.456902 98.090096 103.363617 111.262802 106.570808 106.697945 107.129189 105.268845 112.049995 108.645447 104.559647 100.976227 96.459236 97.784912 100.469032 102.711418 99.844383 94.564423 91.900627 85.969856 81.378685 78.611282 77.761658 75.88105 73.749084 71.928215 70.01725 70.013954 74.760834 81.66021 84.955017 87.00222 78.301804 72.146683 77.483742 80.571251 85.134621 93.632935 100.549896 103.486298 96.454819 78.369179 69.306702 63.403488 58.498074 52.659939 48.98637 46.653881 53.960972 60.388241 57.529671 56.209969 61.128014 67.38092 70.255547 69.596336 67.00473 63.378735 59.547073 53.8895 51.874054 48.991558 41.790993 33.53701 30.250753 34.429634 40.216743 44.055969 47.332195 50.396053 50.943012 49.220432 -9999 -9999 -9999 -9999 -9999 -9999 -9999 -9999 -9999 -9999 -9999 -9999 -9999 -9999 -9999 -9999 -9999 -9999 -9999 -9999 -9999 -9999 -9999 -9999 -9999 -9999 -9999 -9999 -9999 -9999 -9999 -9999 -9999 -9999 -9999 -9999 -9999 -9999 -9999 -9999 -9999 -9999 -9999 -9999 -9999 -9999 -9999 -9999 -9999 -9999 -9999 -9999 -9999 -9999 -9999 -9999 -9999 -9999 -9999 -9999 -9999 -9999 -9999 -9999 -9999 -9999 -9999 -9999
-9999 -9999 -9999 -9999 -9999 -9999 -9999 -9999 73.969391 73.799103 75.990501 78.102295 81.935394 85.480133 89.833954 87.554466 81.780235 77.074051 72.725235 68.698944 68.520172 74.51947 83.4617 89.409645 89.939461 94.206367 100.04953 101.449951 98.440514 98.687233 106.717621 108.137276 115.04425 111.189919 113.563286 115.263824 113.453697 115.557465 118.055801 111.86026 105.789452 99.54409 106.619751 106.67028 101.800957 96.849709 90.022392 86.773643 83.539246 82.948395 84.97612 84.050308 79.902176 74.929955 71.795502 70.582115 72.692749 76.426208 85.192566 91.811989 87.848389 79.815025 75.107498 79.825523 85.100288 90.968811 98.901657 106.986694 109.51387 93.402496 79.53231 69.99572 62.528503 58.053234 55.610542 51.7733 48.297546 55.245934 63.803719 65.382057 62.195522 61.002258 64.934883 69.586105 69.471756 64.667435 60.744553 57.148689 54.87236 51.726448 45.251347 36.173206 30.280924 31.264147 36.620331 40.803898 43.57703 45.925804 46.767971 46.288338 45.645161 -9999 -9999 -9999 -9999 -9999 -9999 -9999 -9999 -9999 -9999 -9999 -9999 -9999 -9999 -9999 -9999 -9999 -9999 -9999 -9999 -9999 -9999 -9999 -9999 -9999 -9999 -9999 -9999 -9999 -9999 -9999 -9999 -9999 -9999 -9999 -9999 -9999 -9999 -9999 -9999 -9999 -9999 -9999 -9999 -9999 -9999 -9999 -9999 -9999 -9999 -9999 -9999 -9999 -9999 -9999 -9999 -9999 -9999 -9999 -9999 -9999 -9999 -9999 -9999 -9999 -9999 -9999 -9999
-9999 -9999 -9999 -9999 -9999 -9999 -9999 -9999 77.282143 77.728905 79.386719 81.22541 83.652115 88.719643 90.320808 87.199821 82.595207 79.130844 75.138107 70.165855 68.574097 71.851204 78.359924 80.637703 82.978409 89.871056 95.677742 102.902504 108.285202 106.95977 110.141251 115.4347 120.4925 118.717911 118.647995 127.929642 126.588402 120.9422 120.661385 119.276459 112.475281 106.572556 109.249992 106.229988 100.126991 95.959724 90.709801 87.139984 89.046387 91.237259 90.538948 84.848137 79.184158 77.622581 75.789024 73.96563 77.786674 79.693031 87.60704 90.735229 85.752754 79.564468 78.395828 78.730858 83.160187 89.139336 96.768654 105.066864 103.546822 87.71257 80.523003 74.078957 66.473106 62.943916 60.895439 54.433258 49.108009 56.486401 66.611504 70.274284 69.197182 66.81118 66.727028 69.87265 67.022087 60.667007 57.003323 53.179089 50.770336 48.495449 42.565105 33.070564 30.613071 32.52684 36.508923 40.217052 40.544643 41.837582 42.625286 44.065525 46.489456 -9999 -9999 -9999 -9999 -9999 -9999 -9999 -9999 -9999 -9999 -9999 -9999 -9999 -9999 -9999 -9999 -9999 -9999 -9999 -9999 -9999 -9999 -9999 -9999 -9999 -9999 -9999 -9999 -9999 -9999 -9999 -9999 -9999 -9999 -9999 -9999 -9999 -9999 -9999 -9999 -9999 -9999 -9999 -9999 -9999 -9999 -9999 -9999 -9999 -9999 -9999 -9999 -9999 -9999 -9999 -9999 -9999 -9999 -9999 -9999 -9999 -9999 -9999 -9999 -9999 -9999 -9999 -9999
-9999 -9999 -9999 -9999 -9999 -9999 -9999 -9999 80.124451 81.567787 82.778519 83.310783 85.69149 89.643501 91.237984 90.528008 88.224731 83.140434 77.49894 71.355736 69.12693 70.599686 78.086418 82.540596 85.411438 87.41658 90.035439 96.533287 104.73748 108.632782 106.585114 108.006683 112.279388 120.125618 127.89888 137.523041 130.456192 118.264671 114.915199 121.325294 119.691772 112.957565 110.329041 109.95697 105.454918 98.851524 91.160736 93.666626 95.566582 93.434586 89.716354 84.40078 80.720932 80.689522 79.968857 77.603149 81.806313 87.180893 91.479462 88.763237 84.384666 81.658096 82.533569 80.495163 86.247261 93.822273 99.806526 106.585754 97.336739 80.743095 71.90786 70.217422 68.0196 63.627083 57.523666 51.473167 51.053944 58.215427 67.776619 72.142197 72.488663 70.341141 69.475098 69.331291 64.631912 59.76181 54.369843 50.553669 47.198586 43.375343 38.631905 31.807489 30.839098 33.561573 35.556103 38.206348 40.079857 41.494274 43.038483 48.192726 51.154564 -9999 -9999 -9999 -9999 -9999 -9999 -9999 -9999 -9999 -9999 -9999 -9999 -9999 -9999 -9999 -9999 -9999 -9999 -9999 -9999 -9999 -9999 -9999 -9999 -9999 -9999 -9999 -9999 -9999 -9999 -9999 -9999 -9999 -9999 -9999 -9999 -9999 -9999 -9999 -9999 -9999 -9999 -9999 -9999 -9999 -9999 -9999 -9999 -9999 -9999 -9999 -9999 -9999 -9999 -9999 -9999 -9999 -9999 -9999 -9999 -9999 -9999 -9999 -9999 -9999 -9999 -9999 -9999
-9999 -9999 -9999 -9999 -9999 -9999 -9999 -9999 82.071938 83.606949 86.098503 87.690758 88.950638 90.281425 91.566116 91.881714 90.644936 84.500275 77.984421 73.268494 71.747818 70.104683 79.28537 87.180992 91.652596 94.990288 97.259018 100.459724 102.130829 99.574417 98.865593 101.419495 108.467148 116.558662 129.128845 138.1129 128.585373 115.993439 108.282501 112.001541 113.164894 108.291122 107.45681 110.465057 105.872513 98.428566 96.674042 100.081978 95.964607 90.362122 86.563141 82.556168 81.479744 81.496208 80.895813 80.668266 85.072464 92.151756 95.085236 90.237175 88.606819 86.593422 87.259422 84.009659 88.313301 96.703163 105.453041 110.366234 94.344864 78.458229 71.003105 66.389633 63.104027 60.866493 55.003071 58.709625 57.612164 57.580193 65.389091 71.23455 72.654633 71.638496 70.501625 68.917412 62.627525 57.910412 52.993401 47.497211 44.528412 41.155224 39.022888 32.232559 30.604721 33.767067 36.593781 39.497406 42.043003 44.369564 47.444794 51.163723 54.014713 -9999 -9999 -9999 -9999 -9999 -9999 -9999 -9999 -9999 -9999 -9999 -9999 -9999 -9999 -9999 -9999 -9999 -9999 -9999 -9999 -9999 -9999 -9999 -9999 -9999 -9999 -9999 -9999 -9999 -9999 -9999 -9999 -9999 -9999 -9999 -9999 -9999 -9999 -9999 -9999 -9999 -9999 -9999 -9999 -9999 -9999 -9999 -9999 -9999 -9999 -9999 -9999 -9999 -9999 -9999 -9999 -9999 -9999 -9999 -9999 -9999 -9999 -9999 -9999 -9999 -9999 -9999 -9999
-9999 -9999 -9999 -9999 -9999 -9999 -9999 -9999 84.776199 85.554665 88.063889 90.290871 90.42807 90.631325 90.939476 90.344711 88.124306 82.556107 79.647064 77.457199 73.116211 70.142471 78.063492 85.22493 89.391953 93.173111 96.724266 96.219185 93.781395 93.749176 100.670197 106.243004 113.094025 122.418579 126.18338 126.153725 123.300911 114.05751 107.725677 103.358154 103.944588 101.774406 104.227654 108.263565 103.937065 99.86425 100.659622 97.527054 90.185272 85.35099 81.964851 79.604912 80.744591 81.381073 80.901993 82.736641 88.862137 97.023712 100.897202 98.301956 93.342117 90.319496 90.485687 87.377502 92.259476 99.847755 107.462555 110.594788 93.863823 82.297386 74.409088 67.453369 61.982136 57.638359 59.140717 66.289955 64.11274 58.994431 64.48024 70.916977 71.944115 70.643486 67.666595 65.140404 62.525131 58.727806 54.015247 49.202858 43.842537 39.328224 35.2113 34.907307 31.019449 33.884575 37.511696 39.705677 41.293346 43.898746 46.232445 48.542522 52.519249 -9999 -9999 -9999 -9999 -9999 -9999 -9999 -9999 -9999 -9999 -9999 -9999 -9999 -9999 -9999 -9999 -9999 -9999 -9999 -9999 -9999 -9999 -9999 -9999 -9999 -9999 -9999 -9999 -9999 -9999 -9999 -9999 -9999 -9999 -9999 -9999 -9999 -9999 -9999 -9999 -9999 -9999 -9999 -9999 -9999 -9999 -9999 -9999 -9999 -9999 -9999 -9999 -9999 -9999 -9999 -9999 -9999 -9999 -9999 -9999 -9999 -9999 -9999 -9999 -9999 -9999 -9999 -9999
-9999 -9999 -9999 -9999 -9999 -9999 -9999 86.440002 86.95929 88.019135 89.105591 90.660332 90.985474 90.829979 90.778053 90.596886 88.790627 87.853775 85.376602 79.101555 71.691933 70.996185 76.342934 80.579483 83.937698 86.643059 87.826897 88.043785 90.588768 94.698784 101.921494 110.382408 118.586166 122.488243 119.992111 118.48761 116.175156 108.975533 106.916756 100.800629 98.412872 98.169662 101.719536 103.010735 101.681892 101.24408 97.953629 90.316345 84.475365 81.006866 77.782776 76.100502 77.53595 79.669678 79.207237 80.891396 88.727982 96.305931 99.477119 98.317757 92.090866 90.368469 92.936325 89.889297 94.468636 101.046661 108.955757 112.258698 100.782753 83.930435 72.776894 66.549988 61.183411 58.4925 65.131065 72.736259 70.840782 65.273293 66.734421 71.425438 71.090958 68.226135 63.937351 60.106319 58.245422 56.149395 52.828087 47.905556 42.568962 41.174362 41.371147 40.216488 31.909985 35.231956 38.759167 41.052109 42.316811 43.131912 44.574039 45.781342 -9999 -9999 -9999 -9999 -9999 -9999 -9999 -9999 -9999 -9999 -9999 -9999 -9999 -9999 -9999 -9999 -9999 -9999 -9999 -9999 -9999 -9999 -9999 -9999 -9999 -9999 -9999 -9999 -9999 -9999 -9999 -9999 -9999 -9999 -9999 -9999 -9999 -9999 -9999 -9999 -9999 -9999 -9999 -9999 -9999 -9999 -9999 -9999 -9999 -9999 -9999 -9999 -9999 -9999 -9999 -9999 -9999 -9999 -9999 -9999 -9999 -9999 -9999 -9999 -9999 -9999 -9999 -9999 -9999
-9999 -9999 -9999 -9999 -9999 -9999 -9999 87.792465 88.253754 89.826958 90.451973 91.053474 91.287094 90.752083 90.79248 91.292267 88.483337 86.576042 83.441383 75.391281 70.637833 71.883598 77.044281 80.225273 82.138184 84.462303 87.565948 90.849487 97.862076 102.690918 106.590919 111.18251 116.616211 114.557487 113.574501 110.000504 107.74733 104.294327 100.825096 98.822502 95.017235 96.475586 98.639435 96.757584 100.043625 100.740669 92.829796 85.986977 81.40213 80.140358 79.694489 76.384476 73.421829 74.216003 75.219276 77.860596 84.735382 91.027863 87.156555 86.549698 83.48983 86.907715 93.11763 95.335381 98.278252 106.353539 110.517403 108.893829 92.347595 82.310028 75.351143 68.832336 61.273567 60.823505 68.426437 77.107613 78.419151 73.179337 70.254997 71.162086 69.665123 65.239433 61.693119 57.277424 53.109211 51.699234 49.177498 45.380348 45.981224 49.174294 47.814339 40.407078 32.221985 38.192993 40.705997 41.992424 43.78091 45.152943 46.369858 -9999 -9999 -9999 -9999 -9999 -9999 -9999 -9999 -9999 -9999 -9999 -9999 -9999 -9999 -9999 -9999 -9999 -9999 -9999 -9999 -9999 -9999 -9999 -9999 -9999 96.925255 93.289001 86.109779 82.411156 -9999 -9999 -9999 -9999 -9999 -9999 -9999 -9999 -9999 -9999 -9999 -9999 -9999 -9999 -9999 -9999 -9999 -9999 -9999 -9999 -9999 -9999 -9999 -9999 -9999 -9999 -9999 -9999 -9999 -9999 -9999 -9999 -9999 -9999 -9999 -9999 -9999 -9999 -9999 -9999 -9999
-9999 -9999 -9999 -9999 -9999 -9999 -9999 89.878113 90.254715 90.54528 91.150749 91.273346 91.12455 90.624283 89.115753 89.685272 81.535789 76.224335 74.639366 72.700768 72.079132 72.614967 77.562119 81.694809 83.945122 86.454285 89.531181 93.100525 97.27742 100.640526 106.555557 112.20182 111.65596 106.421425 106.294579 105.118492 103.336044 97.910408 94.287613 93.145164 91.278687 94.446533 92.271233 92.144424 99.424065 98.860832 91.07016 85.716125 84.667542 85.962494 84.081673 79.009872 73.243637 70.612755 71.436951 75.283035 80.466515 84.952164 81.07515 79.199974 77.819481 83.297234 91.905617 100.660568 104.480408 108.488518 110.17337 105.263573 91.149384 80.459412 73.202553 67.614113 62.856228 65.006271 68.755257 77.479683 83.086311 80.144844 76.396683 73.168549 67.140411 61.535866 58.711292 55.436474 51.423458 49.310772 47.894798 48.759651 50.004498 48.797741 45.498672 38.272923 32.448074 39.237747 41.559631 43.281395 44.867161 46.557808 47.783333 -9999 -9999 -9999 -9999 -9999 -9999 -9999 -9999 -9999 -9999 -9999 -9999 -9999 -9999 -9999 -9999 -9999 -9999 -9999 -9999 -9999 -9999 -9999 -9999 -9999 99.291962 94.663559 86.935219 82.660385 -9999 -9999 -9999 -9999 -9999 -9999 -9999 -9999 -9999 -9999 -9999 -9999 -9999 -9999 -9999 -9999 -9999 -9999 -9999 -9999 -9999 -9999 -9999 -9999 -9999 -9999 -9999 -9999 -9999 -9999 -9999 -9999 -9999 -9999 -9999 -9999 -9999 -9999 -9999 -9999 -9999
-9999 -9999 -9999 -9999 -9999 -9999 -9999 90.610474 91.089203 91.542145 91.645493 91.013634 89.979736 90.174652 85.872414 83.089378 77.723122 75.42543 76.442329 76.742767 76.243759 74.5149 76.840538 79.974129 81.391693 83.67469 86.234985 89.257431 91.718994 96.57415 102.304367 108.49485 109.335701 101.9617 100.154045 101.409409 98.734871 93.253685 88.361649 88.050194 90.783569 92.034515 88.928185 92.228065 95.323593 93.268936 90.688217 90.883247 94.750664 92.011398 85.236145 79.763596 74.339035 69.981934 69.032501 71.504936 75.45517 79.2481 76.642159 75.366699 80.375755 85.883713 91.778549 101.869812 111.043304 114.799408 103.962067 93.860939 88.996933 83.218063 75.845833 67.907623 66.265602 71.928322 70.93454 77.189995 84.535492 85.503525 80.656807 75.650948 69.653648 64.885094 61.42844 59.349812 56.710518 53.810299 53.698429 52.624245 48.612812 42.729431 37.311985 32.545502 32.480579 37.284367 40.603912 42.939655 45.126812 46.780621 -9999 -9999 -9999 -9999 -9999 -9999 -9999 -9999 -9999 -9999 -9999 -9999 -9999 -9999 -9999 -9999 -9999 -9999 -9999 -9999 -9999 -9999 -9999 -9999 -9999 -9999 97.283562 93.958672 88.512001 85.362381 -9999 -9999 -9999 -9999 -9999 -9999 -9999 -9999 -9999 -9999 -9999 -9999 -9999 -9999 -9999 -9999 -9999 -9999 -9999 -9999 -9999 -9999 -9999 -9999 -9999 -9999 -9999 -9999 -9999 -9999 -9999 -9999 -9999 -9999 -9999 -9999 -9999 -9999 -9999 -9999 -9999
-9999 -9999 -9999 -9999 -9999 -9999 -9999 90.68248 91.304077 92.05584 92.098831 91.115517 88.754814 87.090492 84.697212 79.290886 76.034035 79.961998 82.065773 82.345505 80.838348 76.270706 78.032631 80.139427 81.148804 83.471222 85.139252 86.46209 89.241081 92.751793 97.821083 103.429695 106.036438 100.110878 96.518074 99.471039 93.651474 86.683411 82.689743 85.578568 88.429291 86.593872 86.818375 90.565895 88.424957 88.472038 91.664902 99.309021 95.348427 88.903831 82.91394 77.789047 74.755386 71.035515 68.270721 67.928307 69.894661 72.077553 71.609222 74.599136 78.85804 83.74025 90.541977 100.061493 110.953918 119.544189 104.546738 89.467583 80.91758 78.91349 73.269524 67.519218 70.822876 77.965378 77.902908 79.053284 82.209328 80.211494 74.410973 72.276756 70.096191 66.700249 63.836933 61.72234 59.445488 58.588169 59.455189 52.300056 41.21624 33.73468 31.009388 31.182188 33.550217 37.429691 40.37566 42.746193 44.897469 46.227959 -9999 -9999 -9999 -9999 -9999 -9999 -9999 -9999 -9999 -9999 -9999 -9999 -9999 -9999 -9999 -9999 -9999 -9999 -9999 -9999 -9999 -9999 -9999 -9999 -9999 -9999 -9999 97.279419 92.554413 86.818367 -9999 -9999 -9999 -9999 -9999 -9999 -9999 -9999 -9999 -9999 -9999 -9999 -9999 -9999 -9999 -9999 -9999 -9999 -9999 -9999 -9999 -9999 -9999 -9999 -9999 -9999 -9999 -9999 -9999 -9999 -9999 -9999 -9999 -9999 -9999 -9999 -9999 -9999 -9999 -9999 -9999
-9999 -9999 -9999 -9999 -9999 -9999 -9999 90.804825 91.336731 92.168449 92.446434 91.851341 89.748375 85.467285 82.607033 79.234932 79.27639 84.310722 86.651649 87.19043 84.222908 78.206886 79.97715 84.656357 86.993027 89.136444 90.176453 88.996964 88.185112 89.78936 94.078873 98.690712 101.246651 97.412857 92.042839 95.512421 89.838402 83.031982 79.796768 82.502724 81.557953 81.502769 85.852325 86.602219 84.443832 85.867851 89.840485 93.4804 83.956291 79.844009 77.588173 73.138252 71.437569 70.024826 67.527954 65.792358 66.9832 68.939934 72.195854 77.309784 82.370201 88.651924 95.414925 104.207001 114.444328 116.35463 98.040581 85.897034 78.52462 74.01268 69.840736 70.69899 77.756554 83.441879 85.288399 84.836746 83.034233 77.127121 68.670776 65.692093 64.486504 61.829372 59.127319 57.926079 56.253159 58.600559 59.109131 44.480595 32.09845 30.874163 30.971708 32.488838 34.731812 38.155552 40.60899 42.748486 44.493587 45.700245 46.826374 47.881817 48.67625 -9999 -9999 -9999 -9999 -9999 -9999 -9999 -9999 -9999 -9999 -9999 -9999 -9999 -9999 -9999 -9999 -9999 -9999 -9999 -9999 -9999 -9999 -9999 -9999 106.255852 99.49762 88.643639 -9999 -9999 -9999 -9999 -9999 -9999 -9999 -9999 -9999 -9999 -9999 -9999 -9999 -9999 -9999 -9999 -9999 -9999 -9999 -9999 -9999 -9999 -9999 -9999 -9999 -9999 -9999 -9999 -9999 -9999 -9999 -9999 -9999 -9999 -9999 -9999 -9999 -9999 -9999 -9999 -9999
-9999 -9999 -9999 -9999 -9999 -9999 -9999 90.748009 90.98629 91.557648 92.070221 91.327286 87.759346 83.24987 80.551521 78.849243 84.772018 89.305786 90.772514 90.783203 86.320328 79.179543 80.856689 87.15461 92.429878 96.624557 96.978401 95.713203 93.281479 91.864922 91.676086 93.473686 96.300079 94.802429 89.16835 91.78907 91.19416 85.242477 78.73687 78.770241 78.110916 81.25679 83.82634 81.380913 81.155434 84.023087 85.192795 81.0681 79.771744 79.920883 75.879425 70.916351 68.586685 67.078217 64.97216 63.996445 66.293655 69.071144 71.897438 76.141869 81.781822 87.929527 94.873222 102.465889 112.844208 116.239906 96.621948 87.49649 82.463326 76.013145 74.103844 79.627197 86.168854 89.513786 90.186409 85.62542 78.858894 74.226288 67.79673 61.773682 58.836597 55.944775 53.047775 51.292599 50.641407 52.647717 47.363029 35.15572 30.878006 30.950579 32.212025 34.047771 35.359055 38.267418 40.927074 42.199913 42.980389 44.671185 46.207565 47.931549 49.281345 50.22237 52.835537 -9999 -9999 -9999 -9999 -9999 -9999 -9999 -9999 -9999 -9999 -9999 -9999 -9999 -9999 -9999 -9999 -9999 -9999 -9999 -9999 -9999 -9999 106.972565 99.807053 89.861214 89.815498 -9999 -9999 -9999 -9999 -9999 -9999 -9999 -9999 -9999 -9999 -9999 -9999 -9999 -9999 -9999 -9999 -9999 -9999 -9999 -9999 -9999 -9999 -9999 -9999 -9999 -9999 -9999 -9999 -9999 -9999 -9999 -9999 -9999 -9999 -9999 -9999 -9999 -9999 -9999 -9999
-9999 -9999 -9999 -9999 -9999 -9999 91.302254 90.832756 90.262466 89.404114 89.383362 87.964783 84.023926 79.529869 78.728241 82.401405 89.019135 92.585625 93.453873 92.152069 86.265579 79.588394 80.910263 88.579964 95.652084 101.28492 103.693176 104.740356 102.085907 97.022369 92.459114 89.394524 89.850296 89.965202 86.004684 88.013947 87.435204 85.333344 80.501816 76.699745 76.390862 79.843582 81.004303 78.987221 80.463737 82.296242 81.918434 77.49337 75.226768 78.888725 76.771164 72.209854 68.995499 65.750122 63.297688 63.268158 66.772041 70.651505 73.830513 78.00618 81.424614 86.67495 93.553329 102.522247 110.039558 113.600502 103.397255 93.013451 84.2173 79.889297 79.816238 85.342812 90.160469 87.123611 83.496635 77.524918 70.64653 68.785675 66.066002 62.025204 58.128677 53.426037 49.090214 46.229073 46.175198 45.791801 38.412579 31.474817 31.416405 32.603436 34.350506 35.407936 36.201107 37.408112 40.054352 40.658775 42.523289 45.706028 48.178673 50.464653 53.222046 54.318348 55.034618 55.806812 57.044235 58.748001 -9999 -9999 -9999 -9999 -9999 -9999 -9999 -9999 -9999 -9999 -9999 -9999 -9999 -9999 -9999 -9999 -9999 -9999 -9999 101.921768 98.170372 93.557442 91.991707 -9999 -9999 -9999 -9999 -9999 -9999 -9999 -9999 -9999 -9999 -9999 -9999 -9999 -9999 -9999 -9999 -9999 -9999 -9999 -9999 -9999 -9999 -9999 -9999 -9999 -9999 -9999 -9999 -9999 -9999 -9999 -9999 -9999 -9999 -9999 -9999 -9999 -9999 -9999 -9999
-9999 -9999 -9999 -9999 -9999 -9999 91.931534 91.612747 90.616234 87.86216 84.181267 82.055 80.180107 80.585907 81.800331 85.201599 89.901192 92.898621 93.372719 90.907211 84.118317 79.430168 82.167458 89.168037 94.902458 100.094292 105.661575 110.544441 106.974281 99.086891 92.806862 87.159294 82.409477 82.20462 81.326981 82.59182 80.875244 81.078209 80.641167 78.594864 75.358223 75.727081 76.727081 77.412605 81.297714 81.726563 79.973145 74.348457 70.157631 73.192307 73.218948 69.376846 67.317299 64.915886 62.481827 61.842319 65.046082 69.004974 72.48806 77.668297 83.945511 90.240356 95.300385 102.048904 110.728584 118.191109 108.557892 94.745102 87.904099 85.489845 86.208458 89.546257 89.583641 81.268219 72.642151 68.184311 65.135681 62.940392 61.576904 60.035683 60.612892 58.514759 51.916321 45.888592 41.858055 39.976501 33.113815 32.177517 33.400623 34.851532 36.106552 36.890892 38.026543 38.135048 38.384892 40.008762 43.122311 47.163433 50.481392 53.572784 57.133694 60.421013 61.696114 60.971672 60.259632 63.032806 66.897568 72.923592 -9999 -9999 -9999 -9999 -9999 -9999 -9999 -9999 -9999 -9999 -9999 -9999 -9999 -9999 -9999 -9999 -9999 105.634537 104.069405 98.4189 95.189461 103.278763 -9999 -9999 -9999 -9999 -9999 -9999 -9999 -9999 -9999 -9999 -9999 -9999 -9999 -9999 -9999 -9999 -9999 -9999 -9999 -9999 -9999 -9999 -9999 -9999 -9999 -9999 -9999 -9999 -9999 -9999 -9999 -9999 -9999 -9999 -9999 -9999 -9999 -9999 -9999
-9999 -9999 -9999 -9999 -9999 -9999 93.576218 92.55751 91.270515 88.877335 83.36348 80.010979 81.210075 83.465401 85.240425 87.602501 90.68763 92.028015 91.419136 87.997551 82.454262 80.231689 82.945313 87.65451 92.106895 96.720589 101.5233 107.065605 104.744789 97.254944 90.141777 86.003006 81.562805 78.92128 78.232819 78.503326 77.399559 77.437027 78.491859 79.964859 76.218063 72.860489 73.16581 77.028656 81.550896 81.881813 81.167816 75.20919 68.372429 69.639328 69.908249 66.892509 63.92366 61.876286 60.685978 60.528965 64.562729 69.657181 73.169075 76.977745 81.779808 87.218788 93.790184 101.05191 107.319061 112.015877 107.624588 95.917854 87.45446 84.56395 89.574631 91.809418 90.618248 83.951469 74.401909 67.970993 63.271362 58.914604 54.813488 53.755634 58.202839 58.896908 54.340481 46.464794 39.469181 34.214264 32.738251 33.886013 34.963558 36.449978 37.3279 39.018166 40.021275 40.208088 39.506981 40.945301 43.951885 47.589455 50.924156 55.548267 59.760818 63.626507 67.613762 69.393402 69.43576 69.951332 72.010048 74.833496 81.535828 80.523232 74.278549 80.381561 91.39859 88.824409 72.210861 69.459785 -9999 -9999 -9999 -9999 -9999 -9999 -9999 -9999 -9999 121.365669 117.574326 103.594124 96.338623 103.538811 111.066612 -9999 -9999 -9999 -9999 -9999 -9999 -9999 -9999 -9999 -9999 -9999 -9999 -9999 -9999 -9999 -9999 -9999 -9999 -9999 -9999 -9999 -9999 -9999 -9999 -9999 -9999 -9999 -9999 -9999 -9999 -9999 -9999 -9999 -9999 -9999 -9999 -9999 -9999
-9999 -9999 -9999 -9999 -9999 -9999 93.760376 92.548637 90.881416 88.183952 82.945999 80.76841 84.588791 87.873856 89.016777 89.076759 90.740929 90.824478 88.970924 84.745171 81.896111 82.611176 84.579842 88.841507 93.910873 98.349037 100.180107 98.445343 97.372444 97.187126 93.172256 89.376793 86.691895 80.466454 76.527855 75.276535 74.076958 73.125977 74.701897 77.090149 74.745003 71.258682 72.054298 77.101868 81.120262 81.59433 80.354958 74.622147 68.208649 66.077271 65.35994 63.166416 61.058544 59.043968 59.080635 61.315754 65.6987 69.429779 70.744614 73.41893 78.852646 84.454941 90.264091 95.583603 99.199203 102.808136 97.20948 84.056435 78.983452 77.985245 87.711708 92.703239 91.573479 85.960144 78.513672 72.956528 67.765335 62.165455 54.547504 49.320469 51.419849 53.270821 53.794373 49.021935 39.058372 35.888103 37.153316 36.50386 36.546761 37.48978 38.744156 40.878784 43.310738 43.332047 41.106194 41.414471 43.517288 46.552525 49.906147 53.996529 58.245079 61.594414 66.083305 72.882095 78.18277 79.95578 81.132835 80.160126 77.379646 70.23201 69.726082 81.480835 91.696251 84.624634 70.47139 70.156128 83.678093 95.027626 95.853355 92.936478 116.199089 138.260269 146.84404 -9999 -9999 137.787308 127.854263 109.070717 97.654747 100.337669 107.100929 111.087502 -9999 -9999 -9999 -9999 -9999 -9999 -9999 -9999 -9999 -9999 -9999 -9999 -9999 -9999 -9999 -9999 -9999 -9999 -9999 -9999 -9999 -9999 -9999 -9999 -9999 -9999 -9999 -9999 -9999 -9999 -9999 -9999 -9999 -9999 -9999 -9999 -9999
-9999 -9999 -9999 -9999 -9999 -9999 93.420296 91.285454 89.206146 85.71653 82.38942 84.555122 89.889618 91.948372 92.791359 92.033791 92.049759 90.171028 85.956886 83.40052 86.008438 87.151482 86.634964 89.594337 94.663063 99.085968 97.840355 92.42556 90.113449 92.289803 94.235504 92.323334 89.923157 83.999397 79.717987 76.64267 73.769836 71.299873 70.972382 73.350319 72.605354 69.854843 71.975891 77.002258 80.367958 80.400558 80.565521 76.134796 69.82386 65.617172 62.769955 60.476749 58.839794 57.59766 58.890152 61.42654 64.512108 66.526505 70.360649 78.395836 86.015823 93.009064 99.562065 101.568275 101.221626 98.937462 88.029037 77.648285 70.044601 74.26162 86.720375 92.040634 91.244957 84.480072 75.104759 69.496437 67.535843 63.500511 56.630035 48.77166 46.768715 48.685848 50.823902 42.684288 36.599937 41.212059 40.241348 39.435337 38.583332 38.768044 40.424019 43.847023 46.488102 46.343464 42.786572 41.879154 42.743374 45.10754 47.850559 50.208977 52.316982 55.198307 58.554768 64.232552 69.041039 75.105576 76.795395 73.597809 66.811829 64.003296 68.331543 81.114449 86.750885 75.143623 66.675095 67.576584 76.05014 81.584648 83.641975 91.884117 114.599785 137.798141 149.64389 145.274948 150.054276 143.510468 128.898102 108.079857 99.326767 99.027504 101.024689 104.514717 -9999 -9999 -9999 -9999 -9999 -9999 -9999 -9999 -9999 -9999 -9999 -9999 -9999 -9999 -9999 -9999 -9999 -9999 -9999 -9999 -9999 -9999 -9999 -9999 -9999 -9999 -9999 -9999 -9999 -9999 -9999 -9999 -9999 -9999 -9999 -9999 -9999
-9999 -9999 -9999 -9999 -9999 -9999 93.116585 90.42556 87.365219 84.238266 84.072571 88.974159 93.148438 95.566292 96.647446 96.22332 93.364151 89.036339 84.762573 86.064377 89.947525 90.765144 89.283188 89.825615 92.408218 93.608192 93.045578 88.723892 86.361198 89.217461 90.468491 90.160561 89.016129 84.987213 80.68943 76.747154 72.822868 70.715118 69.33297 70.213768 70.840668 68.757919 71.372581 75.744125 78.332062 76.016037 74.997459 73.184784 69.83213 66.54744 63.446712 61.307598 59.729919 56.988625 58.276855 60.264416 61.707893 64.760162 69.971222 78.188507 85.267235 92.333527 97.160759 96.266647 97.24662 92.19323 76.992645 70.959961 66.913391 73.826736 84.534691 88.572227 86.802704 78.367561 70.507957 64.429443 61.822563 61.552906 57.575485 51.502182 45.13657 43.932449 41.338398 35.341499 40.797718 41.609821 41.469795 41.24419 40.299057 41.581161 43.857925 47.795315 49.975586 49.467331 46.207176 44.76284 43.134758 44.611019 46.322723 47.732807 48.85939 50.018444 53.242603 55.886543 56.213104 59.300827 61.755764 59.133366 58.30415 59.936531 64.203392 70.039726 70.467216 65.337349 64.536034 65.816467 68.344139 70.99324 81.786194 94.501129 119.725815 138.36615 151.774643 158.352798 151.951065 135.071182 113.25386 103.750359 105.408211 106.000252 105.737106 102.986389 -9999 -9999 -9999 -9999 -9999 -9999 -9999 -9999 -9999 -9999 -9999 -9999 -9999 -9999 -9999 -9999 -9999 -9999 -9999 -9999 -9999 -9999 -9999 -9999 -9999 -9999 -9999 -9999 -9999 -9999 -9999 -9999 -9999 -9999 -9999 -9999 -9999
-9999 -9999 -9999 -9999 -9999 -9999 93.710396 90.907249 86.941307 85.584305 88.384987 91.759918 95.811836 98.735992 99.833672 98.742668 93.888123 88.691071 85.499557 88.643585 91.271851 91.815376 90.7556 89.367157 87.796333 87.269508 87.589417 85.706642 82.542015 84.718536 83.777359 83.330688 84.294609 82.39328 78.187912 74.580643 71.095436 69.009392 68.035233 67.771194 67.875084 67.415855 70.370674 73.535271 75.945305 74.529518 70.162743 68.414955 67.61734 66.316612 63.619999 61.017086 58.831772 56.27647 57.480541 59.804035 59.950119 62.820648 66.999947 72.147003 80.1464 84.932076 87.048714 88.748512 89.592949 83.534248 72.535088 63.579395 62.21159 70.228889 81.043411 83.628967 80.283371 73.967682 67.97541 62.243149 56.824699 56.040798 55.882729 52.018356 46.588104 40.946152 34.445889 38.409481 41.770073 42.031872 42.935951 43.259411 43.291931 45.3969 48.004227 51.318886 53.615089 52.410183 50.263138 49.418648 45.319923 45.011547 45.911659 46.904232 47.703476 48.762386 50.188457 51.341335 52.485149 54.095661 54.629356 55.475506 56.934669 58.201008 59.394188 61.437092 62.308826 63.857376 66.628296 67.029137 67.168747 69.545563 81.081924 88.418404 102.927864 127.130684 147.965103 159.971283 153.618805 135.908951 109.672905 113.446785 119.764839 116.040833 119.602867 116.717247 -9999 -9999 -9999 -9999 -9999 -9999 -9999 -9999 -9999 -9999 -9999 -9999 -9999 -9999 -9999 -9999 -9999 -9999 -9999 -9999 -9999 -9999 -9999 -9999 -9999 -9999 -9999 -9999 -9999 -9999 -9999 -9999 -9999 -9999 -9999 -9999 -9999
-9999 -9999 -9999 -9999 -9999 94.667503 93.170631 90.454521 86.771652 88.21122 92.026543 95.305824 98.889847 100.901886 101.197838 100.0298 95.32357 89.689194 86.782143 90.471046 92.376984 92.412788 90.814545 87.11219 82.664162 81.533379 82.123184 81.764671 79.486519 80.475822 78.858238 77.551819 79.612709 80.455673 78.523949 76.351273 72.441902 69.453659 67.088982 66.194054 65.751953 66.145172 68.580795 70.668907 72.771057 73.891655 71.011299 67.189598 65.108475 64.781731 63.142868 60.512451 58.271347 55.765316 55.721207 57.596321 58.45789 61.62006 65.232445 68.307182 72.091728 78.274757 85.040176 90.395912 83.859787 73.974327 67.056137 60.742149 59.825203 67.468811 77.831116 78.734016 73.302895 68.963295 64.574013 59.563057 53.530811 51.01445 51.987068 49.296932 45.265972 41.888744 36.828896 38.7113 41.279072 42.473194 44.117477 45.384472 46.205448 48.166679 51.021412 54.702888 57.545547 56.238125 54.409431 53.553391 50.082054 47.182793 47.488625 48.611752 48.324135 51.025593 52.268066 53.802158 54.569927 54.814491 55.923405 58.785717 61.710865 62.396103 61.661316 60.967812 62.698853 66.600296 70.898605 73.874428 70.136543 68.883011 77.789268 84.980278 91.261871 106.853203 136.677704 156.022964 158.057587 142.275864 113.601532 121.335121 133.390259 128.99765 134.606003 132.397705 -9999 -9999 -9999 -9999 -9999 -9999 -9999 -9999 -9999 -9999 -9999 -9999 -9999 -9999 -9999 -9999 -9999 -9999 -9999 -9999 -9999 -9999 -9999 -9999 -9999 -9999 -9999 -9999 -9999 -9999 -9999 -9999 -9999 -9999 -9999 -9999 -9999
-9999 -9999 -9999 -9999 -9999 94.326691 92.907715 89.622932 86.999916 89.863121 93.530907 97.306961 100.453674 101.582848 101.276039 99.709892 95.544945 90.573593 87.613235 90.493233 91.88768 91.943344 90.627083 87.50238 82.897713 78.867966 77.792587 77.048431 76.160072 75.820633 74.307449 73.656647 75.92334 78.65078 80.085983 75.440239 69.870659 68.11145 66.434944 64.944084 64.317642 64.957664 67.368095 68.679604 70.398369 72.021202 71.188919 67.917046 63.624329 62.062447 61.947956 60.083118 57.804344 55.550034 54.349316 55.124577 57.056095 59.779655 62.024803 67.696571 76.451057 86.190193 91.130867 85.225952 74.00856 66.098488 60.501091 55.797447 58.147011 66.786629 75.267189 75.081734 68.390297 64.323364 60.448654 54.847794 49.917912 47.738094 47.349377 45.586884 41.879887 41.369331 39.64423 36.156723 39.946198 41.544792 43.546486 45.77816 47.804497 49.779728 53.393742 57.548195 61.126392 59.604713 59.006535 57.440403 52.953159 49.11747 50.015827 51.781441 50.895828 54.423344 59.66375 62.188507 61.747597 60.707958 60.609734 62.846718 65.726387 68.010078 68.620293 66.859802 65.343971 69.028458 76.46769 80.573425 77.286613 69.774559 74.645065 82.064499 86.637703 99.5065 124.51799 149.03598 158.159988 141.537735 116.986916 126.652512 147.342194 145.374786 151.036758 146.898148 -9999 -9999 -9999 -9999 -9999 -9999 -9999 -9999 -9999 -9999 -9999 -9999 -9999 -9999 -9999 -9999 -9999 -9999 -9999 -9999 -9999 -9999 -9999 -9999 -9999 -9999 -9999 -9999 -9999 -9999 -9999 -9999 -9999 -9999 -9999 -9999 -9999
-9999 -9999 -9999 -9999 -9999 94.887161 92.175117 88.811661 89.451897 91.202927 94.448532 97.759254 100.372932 101.032578 100.285347 98.060013 94.415047 90.890312 88.150177 89.95578 91.065712 91.37574 91.160118 90.319588 84.842545 79.606163 77.750404 74.072624 72.384262 71.735611 70.500946 70.296661 72.235046 75.604424 76.438904 70.755203 67.882652 66.813118 65.453011 63.704247 63.249882 64.515137 66.006111 65.937874 67.350998 69.038063 69.9963 66.062241 61.53727 59.926819 60.024193 58.947624 57.005936 55.054821 53.65942 53.493103 55.274387 57.467918 61.10236 66.64447 75.513817 85.959061 83.145035 71.29541 62.904682 59.694469 55.310539 52.582047 57.220058 66.572121 73.158821 74.060989 69.388824 64.212723 59.532188 53.85939 50.444576 48.817097 42.51104 41.928986 39.928505 39.590744 41.942829 38.117741 39.830811 41.601143 43.745522 46.145336 48.574711 50.970547 55.030014 59.483299 64.935623 63.055653 63.372318 61.177181 55.139469 50.687798 52.541496 55.882854 55.580971 55.998875 61.796734 67.530319 68.608185 67.151215 65.439911 67.056763 70.644661 73.890068 75.610252 74.111679 70.540817 70.722519 78.814957 84.161308 82.840508 76.739296 73.656456 78.793411 83.848091 92.66066 105.935059 131.301224 155.155884 150.054184 127.679008 123.520287 152.430862 165.27684 169.051529 168.148315 154.853745 129.897736 124.881363 112.174217 117.97261 131.327225 139.231735 128.138504 115.638947 105.034775 99.134323 -9999 -9999 -9999 -9999 -9999 -9999 -9999 -9999 -9999 -9999 -9999 -9999 -9999 -9999 -9999 -9999 -9999 -9999 -9999 -9999 -9999 -9999 -9999 -9999 -9999 -9999
-9999 -9999 -9999 -9999 -9999 94.642807 91.304543 89.377663 90.964523 93.559937 96.467247 99.366753 100.547256 100.401161 99.043732 95.992767 93.353432 91.138931 89.852364 89.403603 90.427521 90.984009 91.086639 89.837471 86.139267 83.290771 81.393448 76.975754 71.068848 69.421471 68.741226 68.194542 69.037758 71.090858 70.410034 67.512459 65.932297 65.299545 64.372162 62.599594 62.126122 63.295322 63.731453 62.296677 62.43671 64.132759 65.330925 62.024666 59.287029 58.698097 58.516582 58.015289 56.450069 54.63224 53.110931 52.326969 53.107288 55.5019 59.27697 63.491596 71.085915 77.60585 66.97953 58.865204 55.981709 54.553898 51.853542 50.260296 57.160873 65.136948 70.529541 72.561295 70.732635 67.329437 62.85955 58.937843 54.675823 51.622559 43.781708 38.723862 40.381336 39.973232 38.893116 39.535141 37.931194 40.82962 42.57708 45.320061 48.932755 53.38641 57.877422 62.983707 69.350891 68.909416 69.291306 66.447212 59.389637 54.567154 55.853935 59.610035 61.369495 58.299419 61.99992 70.12841 75.629097 75.337212 72.070641 72.140076 78.596054 82.238197 84.047531 83.427475 79.283707 75.447937 81.604042 87.65139 87.661537 82.505539 79.816086 80.811287 82.754311 87.152527 96.191307 116.842384 150.445038 161.158173 142.567108 124.788429 143.959396 164.627914 177.561951 180.50856 165.433762 143.020218 134.739029 120.16687 115.385597 126.620621 137.967636 131.834732 115.121109 107.582329 100.916077 94.824257 91.110748 93.234184 99.225082 102.623703 -9999 -9999 -9999 -9999 -9999 -9999 -9999 -9999 -9999 -9999 -9999 -9999 -9999 -9999 -9999 -9999 -9999 -9999 -9999 -9999 -9999
-9999 -9999 -9999 -9999 -9999 94.478287 91.222099 91.367554 93.2799 94.475632 96.114891 99.045013 100.633415 100.232361 98.535751 96.495171 94.707939 92.955093 91.27739 89.822861 90.102936 90.660332 90.981354 90.765762 87.953293 83.331879 81.579987 78.155647 73.085732 69.983124 69.434715 68.361588 67.102226 66.861862 66.524063 65.277634 64.263657 63.66156 63.068096 61.997299 61.028744 61.707981 62.020779 60.128433 59.399864 59.838581 60.538509 59.743923 58.210289 57.522068 57.061985 56.630573 56.09919 54.504799 52.815117 51.684238 51.349346 52.418785 56.121143 59.643932 65.379395 63.72683 54.132317 51.07782 51.249466 50.31237 48.801296 48.933804 55.438179 61.157261 67.23011 70.082352 68.070694 65.406944 62.289585 58.050697 53.791996 50.007805 42.599838 40.005047 42.281086 42.479118 42.205723 42.297169 40.576797 37.867973 39.72998 43.289997 48.975895 54.481075 61.271065 67.810608 71.496994 71.331932 71.043091 70.165031 63.83215 58.264957 59.197498 63.253029 66.323227 63.344482 61.52261 68.098518 77.728302 85.148582 82.42218 80.281624 85.636879 94.292511 98.523849 98.581322 92.195435 85.606834 85.981857 93.238213 93.079445 87.631516 86.476311 86.356918 86.714935 86.692635 90.223442 101.71946 131.607773 163.008621 156.717651 133.006073 130.620697 145.007339 164.421494 176.882309 179.694168 171.38768 149.779602 130.934372 116.885376 121.653618 133.710419 132.608246 117.228996 108.73893 99.989479 95.042862 93.689903 98.846451 104.868935 109.031403 106.392273 100.519974 96.166962 93.506248 -9999 -9999 -9999 -9999 -9999 -9999 -9999 -9999 -9999 -9999 -9999 -9999 -9999 -9999 -9999 -9999 -9999
-9999 -9999 -9999 -9999 -9999 92.993217 91.922249 94.798035 97.211288 98.768593 98.975563 98.886986 100.337563 101.299156 100.374519 98.654716 96.571579 94.289978 92.292564 91.011581 90.528229 90.689812 90.777924 89.19632 84.256653 79.671196 78.612091 75.594444 73.446465 73.422699 74.138336 71.65358 68.407753 65.931831 64.82032 63.958984 62.950958 62.272892 61.705608 60.727238 60.099789 60.157124 60.321468 60.107529 58.475761 57.961308 57.775776 57.417339 56.739174 56.231705 55.746735 54.989494 54.531441 54.036545 52.899673 51.44614 50.596394 50.552731 52.624531 55.366341 58.482937 52.839474 48.361183 47.860634 48.257648 47.79908 46.124626 46.771858 50.279869 54.206913 61.440842 64.697792 62.843109 60.991066 58.927666 53.521252 49.536602 45.603149 39.352623 41.511944 43.329769 44.524174 44.485394 44.254719 43.002605 41.775528 37.397789 40.411011 47.308144 54.097149 62.133873 68.673012 71.307281 72.016479 72.335983 71.885155 67.837677 62.221081 63.087772 67.479584 71.58297 71.410797 66.493668 67.181511 75.523621 85.790749 88.985855 89.608971 94.372932 104.14592 107.167366 108.711334 110.112663 106.752266 103.181122 109.626427 104.293892 96.648132 93.37487 92.028961 93.056717 91.623505 93.920731 101.265198 123.416557 158.783844 165.871445 145.353302 135.865417 135.15918 143.45076 158.201096 177.428101 186.778687 163.018051 136.237976 122.2024 119.877663 129.001328 129.013596 117.039124 107.977272 100.334587 99.384888 102.107895 108.7911 110.533356 108.912918 102.605072 97.191383 93.286674 91.655205 -9999 -9999 -9999 -9999 -9999 -9999 -9999 -9999 -9999 -9999 -9999 -9999 -9999 -9999 -9999 -9999 -9999
-9999 -9999 -9999 -9999 -9999 92.98378 92.951576 98.789505 101.567024 102.744995 102.353691 101.578598 102.448776 102.937332 101.332474 99.490036 97.097534 94.761276 93.020042 92.012329 91.434158 91.096771 91.243271 90.644653 86.117317 80.791786 76.997337 77.090599 78.059601 79.464821 78.836227 74.263382 69.673103 66.686577 64.901657 63.643368 62.784081 62.33411 61.674839 60.716434 60.168644 59.517326 59.283035 59.242279 58.175278 57.020283 56.226299 55.695824 55.238422 54.843876 54.492092 53.751122 52.852322 52.146923 51.722023 51.021282 50.101578 49.604393 49.417801 50.480232 51.745712 48.611732 46.589153 45.518227 45.687565 45.024948 43.492249 43.182976 43.915359 46.136871 54.317486 58.344063 56.786201 57.554039 54.126656 49.541981 46.20644 42.827717 39.039871 41.415085 43.765656 45.968361 46.504608 45.51741 43.858665 42.114521 38.434071 40.567387 45.666344 51.345356 59.016552 64.612686 67.50145 70.104103 72.834976 74.253159 70.882813 68.099342 69.073341 72.941261 77.6231 78.311615 73.437531 70.084625 72.998215 77.526199 79.248802 84.512566 89.447044 90.157936 88.035515 91.537186 106.859146 128.932129 136.101181 137.422592 127.553703 113.015984 105.942871 101.098068 102.30603 102.632637 102.09967 110.172585 127.850563 152.483109 167.41539 160.351425 154.584808 144.361786 138.955872 153.94519 174.475189 188.428116 169.237381 141.730057 133.498535 126.529404 126.565933 131.123596 118.900925 109.291611 109.388618 110.030151 110.513474 112.394753 109.452873 100.784683 97.131691 93.568146 91.282478 -9999 -9999 -9999 -9999 -9999 -9999 -9999 -9999 -9999 -9999 -9999 -9999 -9999 -9999 -9999 -9999 -9999 -9999
-9999 -9999 -9999 -9999 94.589951 93.727997 96.99015 104.438156 107.087112 107.257446 105.99028 105.043045 105.272308 103.579544 100.480148 98.500824 96.359703 94.575211 94.260063 93.877678 92.68821 91.636147 90.417557 87.74485 82.782509 79.341888 79.240036 81.169052 82.649902 81.371284 77.680504 72.750763 68.712242 66.247887 64.630959 63.560028 63.578423 63.657127 62.581596 60.759087 59.870613 59.391697 58.337238 58.179195 57.475334 56.512207 55.715103 54.881523 54.253204 53.770527 53.303318 52.711929 52.011837 51.210072 50.649136 50.147854 49.802002 49.210922 48.711807 48.715195 48.751534 47.325676 45.790581 45.066574 44.379723 43.625782 43.883057 44.377098 43.28735 42.405762 47.991005 51.579243 50.515568 53.552494 52.268803 48.729179 45.434929 42.420822 39.442673 41.891716 45.259377 47.445965 48.10923 45.95499 43.302643 41.668041 38.250286 41.047874 46.116127 50.723183 56.162891 59.846848 62.233749 66.832512 71.418633 75.74501 76.40638 74.409714 73.945953 77.395477 80.297501 78.489204 73.008163 68.976295 67.45137 68.61425 69.335815 74.467712 76.920616 76.321266 79.900818 86.198471 98.318024 122.60759 145.327927 151.041672 147.613953 134.571182 120.702995 112.002045 110.430313 111.203285 111.095131 110.923134 118.066452 125.91967 141.384735 162.593231 168.242508 161.721558 146.12941 150.386505 175.450211 192.875992 178.664047 150.325897 145.516724 134.022873 128.436478 136.027695 122.119324 114.269859 117.496788 118.755424 117.394936 114.971024 110.960426 100.924423 95.886131 93.217049 92.800148 -9999 -9999 -9999 -9999 -9999 -9999 -9999 -9999 -9999 -9999 -9999 -9999 -9999 -9999 -9999 -9999 -9999 -9999
-9999 -9999 -9999 -9999 94.929123 95.054794 101.510124 108.583839 110.635895 110.144974 108.981453 108.045029 106.757866 103.385246 100.000923 98.057968 96.217369 96.067848 97.002411 96.502426 94.665176 92.651215 89.678688 84.958313 82.266396 82.391586 85.074875 86.580994 82.324211 77.574402 73.631958 69.943459 67.51577 65.242981 64.298096 65.36908 66.598969 65.474068 62.729839 60.602367 60.011639 59.290039 57.954117 57.468174 56.910042 56.25515 55.865673 55.340767 54.682121 54.106728 53.405991 52.687096 51.952843 51.218441 50.522007 50.15073 50.096699 49.726757 48.474777 47.919827 47.43285 46.750973 46.252853 45.262791 44.380249 44.311798 46.678173 48.469742 47.480484 44.36974 42.380413 44.337139 45.699512 48.972195 49.798088 47.791546 45.319668 42.240143 39.560543 44.253769 48.527985 49.976181 49.651348 46.618793 43.050182 38.55711 40.862709 43.544464 46.096607 48.079872 51.381062 52.260315 56.085697 61.165653 67.022011 73.626549 79.741364 80.19352 78.599686 80.644356 79.064957 70.689926 64.907669 61.576504 60.560875 62.424908 64.796326 66.935448 68.918816 72.129135 79.744728 85.898087 95.503975 111.701393 138.884521 149.285736 128.499222 110.971039 106.316566 103.002869 101.943199 101.760536 107.199585 100.986969 102.62014 107.202232 115.754562 128.357422 144.647476 160.838776 162.220505 154.406006 172.006424 194.426147 190.76889 164.161545 149.767654 133.913925 130.183685 140.433029 130.506668 122.789886 125.618576 123.170753 118.634003 112.781555 107.98069 100.514038 96.310143 94.869469 96.65332 -9999 -9999 -9999 -9999 -9999 -9999 -9999 -9999 -9999 -9999 -9999 -9999 -9999 -9999 -9999 -9999 -9999 -9999
-9999 -9999 -9999 -9999 95.854843 97.25985 102.903412 107.37014 110.367165 111.008186 110.514809 109.526474 106.834274 103.510132 100.819962 98.323257 97.099731 98.651253 99.548187 99.194847 97.278244 95.494476 90.403564 87.923004 88.124817 89.37368 89.596924 86.108978 79.21553 73.660934 70.172714 67.957642 66.33358 65.111641 66.095772 69.58831 68.592491 64.670868 62.463943 62.070381 62.558647 61.576588 59.490543 57.95435 57.172817 56.970211 56.686016 56.193722 55.499355 54.557495 53.677299 52.72823 51.883995 51.197628 50.554108 50.192059 50.05867 49.668247 49.337006 49.511436 49.194614 47.952614 46.573921 45.557316 46.164173 47.643528 51.399242 53.901234 52.38739 49.351357 43.738556 40.637939 41.040501 42.862358 44.321774 44.435894 43.985744 41.755806 39.557007 45.314846 51.290638 51.24979 48.673473 45.949806 42.927677 38.00621 39.771999 40.952808 41.392143 41.8839 43.42271 42.488354 48.270641 54.001225 58.231796 65.548569 77.004753 84.840561 85.453171 82.635216 76.139069 66.357262 59.28064 57.225391 58.929718 63.491112 69.76252 69.979706 69.409981 75.27774 79.417191 82.244286 89.961884 101.455086 130.343369 141.352356 112.253578 94.514709 89.803741 89.73793 88.431702 92.250694 99.59259 95.84584 92.313034 96.055099 101.676315 102.832314 112.915733 128.464005 148.928329 163.002823 178.553299 195.918091 186.038193 159.600479 145.416489 134.704605 135.405899 142.512192 142.188187 134.567139 125.323486 118.945114 114.984467 109.696632 105.03801 100.980385 98.238708 96.940445 100.379234 -9999 -9999 -9999 -9999 -9999 -9999 -9999 -9999 -9999 -9999 -9999 -9999 -9999 -9999 -9999 -9999 -9999 -9999
-9999 -9999 -9999 -9999 96.518593 97.67202 101.403366 105.695328 109.89135 111.096771 110.933922 109.721779 105.908463 101.48896 99.661156 98.682808 99.284744 100.674881 101.256805 100.989586 99.97744 98.834473 94.481735 95.83886 95.027046 91.364449 86.376999 80.165352 74.79158 70.129868 68.403122 67.03183 66.868401 68.257629 71.197006 70.24015 67.315491 64.721436 65.087059 65.78714 65.820648 64.018257 61.303631 59.210922 58.458698 58.113342 57.734608 57.102104 56.151722 55.121159 54.15237 53.101192 51.913761 51.259907 51.265667 52.030087 53.38129 54.363926 53.507782 52.870895 50.714046 48.719669 46.657448 46.881817 49.66449 52.992062 59.063629 60.890781 58.256939 53.130329 48.123333 44.794083 42.293274 40.672203 40.14072 40.618591 41.282326 40.566196 40.21767 48.695572 53.810726 50.715591 47.434887 44.809769 41.994671 39.957817 39.996567 40.130684 40.056629 40.484352 40.043903 39.847065 39.760002 45.945419 48.387993 52.118908 65.070549 79.852425 85.857666 76.174568 66.883026 59.194923 54.90992 55.799713 59.934048 66.443298 74.354004 76.713028 71.741211 76.560822 84.299812 87.979866 94.304115 108.253822 125.027885 119.125443 103.394798 90.483681 82.368042 80.433823 82.694099 90.489349 95.883957 92.867584 87.052956 89.177567 90.70002 92.106628 99.766342 109.413368 121.922356 135.732071 153.574951 183.954666 193.993759 167.959885 151.161118 140.744873 146.005463 147.703384 147.013336 138.316574 127.894295 122.80526 119.659096 115.66925 111.871254 106.914963 99.748131 98.603577 103.465851 -9999 -9999 -9999 -9999 -9999 -9999 -9999 -9999 -9999 -9999 -9999 -9999 -9999 -9999 -9999 -9999 -9999 -9999
-9999 -9999 -9999 -9999 97.902794 99.825714 102.143806 104.989426 108.823402 110.683411 110.190315 107.875198 104.322594 101.669701 101.202049 99.816185 100.444481 101.60276 102.463982 102.757866 102.298492 101.504143 100.091476 99.359276 94.764778 88.090317 82.13353 76.50515 71.426758 69.013161 69.435753 69.074829 69.691528 71.511482 74.465607 71.142845 68.023155 66.73468 68.712204 69.369812 68.462845 65.820755 62.912971 60.738297 59.962673 59.327324 58.929501 58.106594 56.727989 55.463131 54.416348 53.329754 52.277153 51.758419 52.696877 55.083771 57.830051 59.565166 57.400887 54.327614 50.440628 48.433197 46.607101 48.590542 54.005108 60.043816 67.188095 69.63752 63.000168 56.237617 53.921806 51.049797 47.58284 44.245842 41.308506 40.767487 40.09885 41.297009 46.371197 53.835556 55.120712 50.043114 46.953114 44.555954 42.478897 41.659229 42.073376 42.126713 41.976433 42.224491 42.215015 39.494644 39.373714 43.253136 44.245007 45.627258 48.185356 52.419968 55.696613 54.790672 53.624191 52.479244 52.315769 54.883259 59.581337 66.067978 76.011276 85.504143 80.247589 78.410614 83.336983 92.763031 100.845673 116.129593 113.118912 96.477455 88.843445 83.825699 76.905708 79.375099 85.121689 91.009529 93.174515 92.273048 86.141739 80.819016 83.599442 88.69162 95.242813 103.484573 107.615181 113.855682 123.712494 150.498093 176.209503 170.601379 156.282394 149.798798 156.897888 149.840256 135.807968 131.273361 130.000107 125.2957 121.428139 117.148201 112.945534 107.765327 99.801147 100.792404 105.967255 -9999 -9999 -9999 -9999 -9999 -9999 -9999 -9999 -9999 -9999 -9999 -9999 -9999 -9999 -9999 -9999 -9999 -9999
-9999 -9999 -9999 -9999 99.795807 99.976097 102.858444 106.01548 109.23185 110.562164 109.618912 107.3489 105.310768 103.752731 101.871353 100.364487 100.986786 101.944878 102.637199 103.18277 102.755165 101.395897 98.522354 94.057381 89.136772 83.379066 78.422836 73.270706 69.869728 70.963295 73.285873 74.557343 75.611015 77.939445 77.144348 72.448174 69.224754 68.741249 71.077087 71.654289 70.072212 67.493736 65.511139 63.796524 62.424492 61.056835 60.197365 58.809803 57.097279 55.706497 54.530052 53.392677 52.369667 52.453026 54.167343 57.149979 59.925396 60.209435 55.827557 53.299675 51.084332 48.503662 46.829647 50.504753 56.72694 66.103424 73.838669 74.971603 66.867317 61.070518 58.026203 53.837814 49.594856 44.975872 41.77404 43.79565 45.344082 47.858593 53.401421 58.249615 55.912853 49.99427 47.250183 45.214615 43.581989 42.834721 43.09552 43.331783 43.230919 43.458073 43.220505 41.235115 39.029282 40.816265 42.006683 44.038216 45.563019 46.935818 48.227272 48.242424 49.39587 50.249874 50.390755 52.943897 57.014942 61.813534 71.522888 88.097923 88.595512 86.629677 87.362129 93.392159 104.572472 107.264534 97.445213 87.087784 81.776947 75.953972 70.863968 80.486816 85.902527 89.268898 88.618004 89.025009 84.867287 77.738762 80.955185 86.774467 90.154396 91.246025 97.502419 103.769127 108.437775 118.424217 136.472534 149.958923 144.96524 150.003479 155.037628 142.069336 127.528801 121.864464 122.327194 119.26178 115.444572 111.089333 107.878128 102.093811 99.915649 103.665878 109.296616 -9999 -9999 -9999 -9999 -9999 -9999 -9999 -9999 -9999 -9999 -9999 -9999 -9999 -9999 -9999 -9999 -9999 -9999
-9999 -9999 -9999 -9999 102.41478 100.925896 103.264778 106.302025 109.012985 110.471741 109.953369 107.899834 105.586891 103.448677 101.848457 101.250122 101.527031 101.811913 101.612503 101.475594 100.087852 96.787643 91.99791 88.355438 83.385544 78.762848 74.951103 71.375916 69.985428 73.129562 76.905701 79.569069 84.08876 84.903679 79.181335 75.149193 71.089958 69.7276 72.779663 73.799576 71.518494 69.432701 67.797173 65.80928 63.731358 61.571121 59.657967 58.311253 56.86652 55.450844 54.28093 53.299316 52.69183 53.25227 55.318928 58.094376 60.384937 57.922596 50.856518 49.854099 50.137283 48.559021 50.201996 54.110176 59.89362 71.656685 78.564171 78.140274 70.086418 63.407272 58.475613 53.720459 48.662582 43.906948 43.195007 45.192863 49.788887 54.470345 59.444588 60.028805 56.408859 50.990616 48.055531 46.107124 44.857105 44.133823 44.400902 44.490532 44.531582 44.580639 43.762138 42.262817 40.329025 39.294781 41.26757 42.544861 43.909893 45.701439 46.336643 47.069313 48.185192 48.423862 48.476761 50.009789 51.173145 54.262424 62.346882 75.65033 89.43174 92.808357 91.430099 89.243881 88.439171 89.71917 87.914139 83.557304 74.366959 69.134476 68.803009 76.016396 80.770248 84.304695 82.051254 84.178192 82.437218 76.415306 77.410698 79.902626 82.029617 87.08342 91.905556 95.175362 101.150589 111.280258 121.079849 125.845078 119.193047 125.649147 128.436172 130.901093 130.019638 120.740143 117.612083 115.469894 113.422462 112.01371 108.911072 103.693649 106.926025 108.054756 110.117798 -9999 -9999 -9999 -9999 -9999 -9999 -9999 -9999 -9999 -9999 -9999 -9999 -9999 -9999 -9999 -9999 -9999 -9999
-9999 -9999 -9999 107.645798 105.054062 102.522446 104.712204 107.198692 108.529648 109.220268 108.149261 106.367226 104.58165 102.851524 101.6408 101.32785 101.217979 100.904861 98.607292 95.786873 93.471519 89.94352 86.715401 83.597176 79.633598 76.407249 73.152786 71.345749 72.404289 76.370865 80.09024 82.529686 89.111443 89.859413 83.453827 77.346985 73.355644 73.241119 75.782341 75.14325 72.664413 70.386131 67.329712 64.183739 61.698101 59.736778 58.487556 57.326736 56.081825 54.905895 54.009411 53.485485 53.262711 53.728302 55.740089 58.404949 60.139069 56.316376 50.118755 49.518188 49.321404 51.901569 54.58889 58.68565 67.348122 75.841797 80.232956 74.387314 67.077675 61.456711 56.900627 52.129223 46.330494 45.523193 49.670731 51.592926 52.090942 57.168903 60.742962 59.17939 55.404999 51.241009 48.514908 46.929375 45.908157 45.649567 45.74271 45.697746 45.779091 45.640656 44.455547 43.073315 42.168488 40.27285 39.466721 41.388283 43.210381 44.408756 44.87146 46.116634 46.113758 46.063885 46.563911 47.54969 48.154713 48.870693 52.424862 59.078815 70.786972 80.145866 79.934151 74.916382 73.865417 79.028412 81.354477 77.116165 70.179039 65.946861 66.766068 70.277344 76.530678 79.879944 77.453857 80.772537 78.77813 73.795395 78.320251 80.745415 80.920227 84.716721 89.872696 96.36586 105.263664 111.839806 110.956696 110.566879 107.694908 111.317162 110.908005 121.967606 127.969582 124.33625 120.620895 119.878578 121.138786 120.027504 112.356026 107.949165 113.058281 115.350227 -9999 -9999 -9999 -9999 -9999 -9999 -9999 -9999 -9999 -9999 -9999 -9999 -9999 -9999 -9999 -9999 -9999 -9999 -9999
-9999 -9999 -9999 108.553421 106.68148 104.131195 106.528061 108.410622 107.770355 105.851044 104.890251 103.74353 102.311226 101.266106 99.697906 99.711922 99.479553 98.350739 95.938278 91.380173 87.855721 85.588562 83.096283 79.88884 77.130463 74.333023 73.275307 75.895653 78.358231 78.971283 80.782761 80.647881 81.161743 83.466896 82.167694 78.922157 77.566589 78.859749 77.265778 73.443901 71.2089 68.678925 65.214417 61.952999 59.858894 58.661888 57.578308 56.439713 55.267075 54.349174 54.090141 54.332954 54.423344 54.631397 55.883854 57.879089 58.391644 54.672523 50.653187 50.224689 50.440445 53.375732 57.20406 63.218372 74.148529 79.937408 78.757904 70.121185 64.28286 59.460201 55.471733 51.372776 46.12542 50.339542 54.850807 57.109131 57.187592 58.947014 60.246246 58.343586 54.465614 50.850143 49.157085 48.246067 47.688747 47.228924 46.940849 46.866257 47.06015 46.630676 45.358616 44.479042 43.139736 41.562519 39.475166 40.464706 42.393772 42.892689 43.805206 44.318756 44.08226 44.050346 44.818962 45.829716 46.377052 46.846741 46.750526 47.8769 51.337067 54.99073 58.000652 61.531399 64.819275 67.324211 69.538246 69.012894 65.768036 63.951275 66.156387 69.644028 71.800056 71.981346 71.896049 75.830933 72.477692 71.871506 77.416992 80.952171 84.826561 88.533081 92.895546 98.585464 103.760612 108.222794 105.019646 101.887314 101.915367 102.18644 106.560692 113.40696 126.033592 131.487 130.930435 131.564636 128.905289 121.618134 112.510269 111.004501 115.083328 119.689026 -9999 -9999 -9999 -9999 -9999 -9999 -9999 -9999 -9999 -9999 -9999 -9999 -9999 -9999 -9999 -9999 -9999 -9999 -9999
-9999 -9999 -9999 111.315048 107.678238 105.612213 108.774406 110.160759 108.244614 103.203537 101.054581 100.44165 98.689423 97.869896 95.999886 95.090416 94.968246 94.096748 92.671631 89.483322 85.743782 82.164017 79.608078 77.390793 75.376747 74.770149 77.189468 80.44677 81.577011 80.850677 81.095261 79.657837 76.589661 78.140709 80.765533 81.102333 81.210365 80.777985 74.430382 69.685638 67.470192 64.621964 61.631752 59.597698 58.567196 57.776665 56.910206 55.868385 54.919636 54.528774 54.87875 55.540276 55.591454 55.341385 55.597836 55.90078 54.84536 52.38829 50.899651 50.639202 50.906013 54.154701 59.525822 67.795647 76.810478 80.607056 73.932793 66.171661 60.938808 56.915466 52.88364 49.059406 47.32856 53.52774 58.999432 63.121601 64.965347 64.215591 61.961552 58.495773 54.906292 52.636158 53.197857 53.10849 51.323429 49.22113 48.246269 48.023537 48.318588 47.744904 46.68111 45.037384 43.531849 42.234165 40.347652 39.269642 40.812561 41.667309 42.450836 42.334435 41.98325 42.23703 43.295513 44.184269 44.676689 44.900524 44.376911 45.109596 46.377636 47.926083 50.31538 55.479607 59.142765 61.780766 65.209221 66.141411 62.790516 62.365585 65.744514 67.106682 66.944794 66.965202 69.033569 71.421158 68.841087 69.892525 71.059708 74.172104 80.742432 83.540092 85.188972 89.613525 94.713829 102.957291 101.618149 95.261391 97.443367 97.443108 103.558441 111.684074 120.792725 130.881439 138.571625 136.847595 129.093521 120.027779 117.517319 118.411789 119.313309 123.663185 -9999 -9999 -9999 -9999 -9999 -9999 -9999 -9999 -9999 -9999 -9999 -9999 -9999 -9999 -9999 -9999 -9999 -9999 -9999
-9999 -9999 -9999 112.943672 108.706551 107.578674 110.610619 111.160583 109.314026 104.059837 99 96.044449 93.621681 92.090866 92.180695 90.717194 90.513107 89.615685 87.238945 84.536072 82.496254 80.088432 77.609825 77.771271 79.194595 80.75721 82.036232 83.839546 83.271255 81.180679 79.472878 77.055847 72.823517 73.650604 79.400223 81.095932 80.486771 77.721733 69.17292 64.857635 61.894604 60.307281 59.032139 58.285519 57.734524 57.169308 56.464836 55.641495 55.151588 55.118263 55.196102 55.596973 55.755108 55.339413 54.559074 53.400078 52.151844 51.210239 51.16449 51.207363 51.995239 55.835575 63.601433 73.980843 79.569275 77.869835 68.966652 63.933895 59.110149 54.317436 50.250999 46.952431 50.995667 57.952133 63.046848 68.696518 70.496727 69.023323 65.149834 60.258255 56.659267 56.27108 58.756184 59.650936 57.97113 54.266701 50.278023 49.263714 49.609829 48.686157 47.232025 45.905743 44.501804 43.265121 42.095753 40.359138 39.297062 40.347347 40.893349 39.930893 39.710552 40.888821 41.979023 42.352245 42.676533 42.597786 43.529732 45.201347 46.023827 46.970814 48.900833 52.095936 55.944458 60.080006 63.171265 63.04554 60.247643 61.72419 64.482361 64.207878 63.551952 63.596447 65.517944 67.080269 66.451851 67.750732 71.479996 73.754402 76.820068 79.271004 81.616913 88.014786 92.729759 100.778419 97.316841 90.596458 91.516174 94.925964 101.885674 110.259949 119.048454 121.357811 126.37191 125.418747 130.5896 128.047211 126.928589 127.470673 127.54174 129.726456 -9999 -9999 -9999 -9999 -9999 -9999 -9999 -9999 -9999 -9999 -9999 -9999 -9999 -9999 -9999 -9999 -9999 -9999 -9999
-9999 -9999 -9999 111.769051 108.984459 109.429291 111.509735 111.91172 110.399155 105.154976 99.842148 94.924934 91.962738 90.278542 89.757431 88.993088 87.881416 86.204773 83.668098 81.07267 79.786377 79.039421 80.883842 83.775528 85.719498 87.014534 87.086403 85.182274 82.520729 79.446671 75.424637 72.641388 70.003479 69.823509 73.399338 74.353264 72.278976 70.710609 67.007866 62.451012 59.919342 59.889008 59.537117 58.491158 57.653816 56.95013 56.233078 55.648014 55.509171 55.084389 54.31955 54.086914 54.278652 53.934753 53.004612 52.329926 52.358364 52.056271 51.760258 51.795727 53.956886 57.943317 67.859612 78.217224 80.1381 72.719719 65.871719 61.330254 56.570057 51.859085 48.433693 48.027607 54.660141 61.450905 65.929604 69.696342 70.790794 70.430382 66.888809 61.84734 58.896538 59.277122 61.113045 61.334904 60.238106 57.080662 52.132225 50.345341 50.327248 49.47332 48.020618 46.537342 45.160828 43.936642 42.915268 41.844875 41.034882 40.072536 39.399937 40.238113 40.565243 39.807854 40.474579 40.308624 40.464115 41.072903 42.67939 43.652378 44.562908 46.000572 47.963837 50.282093 54.139351 58.720882 61.07077 60.642277 59.160255 61.753109 62.555721 61.616863 60.51683 60.679527 62.161797 63.69894 65.382454 70.153336 76.800774 80.585243 82.549576 85.087349 88.97187 92.870972 96.528381 96.21106 89.952614 88.215218 90.950645 101.050484 109.596283 114.451042 113.282364 114.575775 117.189529 116.24115 126.308815 130.949936 131.859116 131.978088 131.467392 131.000549 -9999 -9999 -9999 -9999 -9999 -9999 -9999 -9999 -9999 -9999 -9999 -9999 -9999 -9999 -9999 -9999 -9999 -9999 -9999
-9999 -9999 -9999 110.017281 110.224609 109.681839 111.083527 111.986755 110.127388 102.916817 98.311111 99.164803 99.561707 95.557289 93.225113 89.613113 88.110641 88.409409 88.396904 87.111084 85.629166 84.140244 88.42469 90.132782 90.601654 89.447983 85.897377 82.422836 80.361633 76.417679 71.330482 69.727837 68.909683 68.21479 68.358101 68.006523 67.719048 66.963211 65.184105 62.55254 60.339886 59.931797 59.21109 57.822365 57.004665 56.307602 55.779648 55.379471 55.081402 54.503719 54.83532 55.300613 53.984024 53.026463 53.093292 54.104149 54.351864 53.290218 52.4403 52.315365 55.951389 61.617878 72.645538 79.823891 76.883179 68.504822 63.608971 57.905258 51.491592 49.31889 49.636524 48.934177 53.449173 61.130459 63.649368 66.266457 67.698914 68.753632 66.856415 63.448292 61.142986 60.203423 60.449764 59.252659 57.835335 55.476879 52.671589 51.372253 51.101006 49.965706 48.450783 46.967064 45.65556 44.577854 43.696953 42.937317 42.289158 41.616829 40.677467 40.893917 41.035606 40.839073 40.371944 40.122078 40.0644 39.89275 40.562759 41.636223 43.227875 45.323578 47.292694 49.133038 51.8839 55.96352 57.584301 56.028282 57.615505 59.997044 59.715923 58.828587 58.970978 60.333462 62.174507 64.626297 69.806107 74.898956 79.473312 81.485725 83.228615 85.741287 87.965569 90.491043 91.646721 88.352959 86.865059 89.011604 97.697334 103.921982 107.352875 111.329758 107.791565 110.183487 107.607811 110.277596 118.321838 119.954681 123.822075 130.745575 130.516068 126.525513 121.759369 -9999 -9999 -9999 -9999 -9999 -9999 -9999 -9999 -9999 -9999 -9999 -9999 -9999 -9999 -9999 -9999 -9999 -9999
-9999 -9999 -9999 111.508804 113.181625 112.83577 112.469536 113.185753 109.813858 101.414429 101.71283 107.129211 104.935822 101.377098 98.603714 91.459473 90.678436 95.090096 94.264549 94.956604 91.247787 89.413338 91.490532 91.788719 90.991158 85.892357 81.189056 77.846718 76.493263 73.673248 69.743477 68.63549 67.980705 67.267967 66.549797 65.50647 65.2743 64.011192 62.52829 61.468788 60.258877 59.883427 57.673153 57.154411 56.138794 55.785278 55.745079 55.206963 55.332069 56.335175 59.14238 58.977997 56.739841 55.709511 56.581596 57.06604 56.207165 54.200264 53.111832 53.767921 59.154224 68.461967 76.698265 79.764618 72.404106 65.792641 61.064312 54.152554 50.009304 51.615318 54.111233 52.973637 51.983959 56.502712 59.542362 62.361504 64.187576 66.782921 66.951828 65.328308 62.868114 59.514568 57.525219 55.748329 54.673012 53.648582 52.948509 53.062042 52.088772 50.018425 48.577866 47.358299 46.398712 45.575474 44.767532 44.078072 43.554909 43.221077 42.7066 42.509708 42.495304 42.508949 41.862892 41.603264 41.540321 40.998131 40.177601 40.316559 42.135288 44.563786 46.278805 48.061924 50.41637 52.465439 52.391071 52.338169 53.04192 54.348099 56.063564 59.777359 61.351246 63.004261 65.223145 67.990669 70.841827 72.28566 73.426872 73.774811 75.775322 79.594658 80.926857 84.349144 85.23349 82.586067 84.096069 90.286469 96.08152 96.871979 102.306763 107.787735 102.726822 102.398354 100.742165 105.87513 105.919029 107.875343 119.600273 129.202576 130.392242 128.797516 127.220886 124.383873 123.761223 125.250702 -9999 -9999 -9999 -9999 -9999 -9999 -9999 -9999 -9999 -9999 -9999 -9999 -9999 -9999 -9999
-9999 -9999 -9999 117.71489 117.730789 118.060921 117.835403 113.759315 108.394035 104.777985 109.824959 111.426865 109.870247 105.860008 99.963142 92.058067 94.062836 103.492294 106.87442 103.982643 96.685776 92.295197 89.955338 87.850174 85.579819 81.153404 76.11998 72.786201 71.66111 70.89772 69.067596 68.131889 67.43811 66.567696 65.709526 64.798592 63.43232 60.664978 59.980026 59.574856 59.274391 58.895847 58.402706 59.70396 58.186039 58.866455 58.679668 57.553982 58.802013 59.40535 60.05117 59.384506 58.396767 58.57457 59.956272 58.694759 57.00745 54.582329 54.051014 56.972206 64.514107 74.448586 79.455696 77.32283 68.769753 63.280682 58.216995 51.983273 53.650177 58.298042 59.644966 58.2841 54.464951 53.962078 57.156498 59.558193 62.45118 67.261696 69.169319 68.786766 65.779305 60.637505 56.745125 55.66766 55.17495 54.67997 54.611893 55.045376 53.113441 50.24749 49.244514 48.372921 47.540165 46.710304 45.863037 45.265419 44.838493 44.533283 44.165848 43.681145 43.691208 43.873329 43.252335 43.288029 43.509289 42.897358 41.878784 40.729912 40.371883 42.55999 44.261353 46.196545 48.649555 49.790504 50.346043 50.62796 51.659191 52.506989 54.983925 59.37468 61.192589 63.106628 65.46933 66.662796 66.435844 65.918488 66.497154 67.052078 68.62075 71.209885 74.52169 80.24929 80.139816 79.982559 82.639221 86.620888 88.447105 90.696465 99.744156 104.890884 101.125313 95.148788 96.131187 99.398796 99.230492 107.532478 114.008804 118.907005 126.054077 126.564682 125.569641 122.617584 123.765907 124.513359 123.474762 127.430695 -9999 -9999 -9999 -9999 -9999 -9999 -9999 -9999 -9999 -9999 -9999 -9999 -9999
-9999 -9999 125.149796 125.132713 124.455513 124.03978 121.626335 112.681435 107.56823 107.998497 111.005775 110.364021 107.663467 103.401169 99.352341 98.541931 99.692703 105.560043 106.682487 101.470238 96.741425 90.017845 85.450714 81.325172 78.483505 77.29174 73.433899 69.625412 68.993034 68.524529 67.63942 66.905579 66.417427 65.743164 64.809341 63.779232 61.951721 59.887276 59.511524 59.623322 60.294872 59.799091 59.406284 59.961681 60.648556 60.722233 59.580334 59.828331 61.42992 61.790905 62.109325 62.15258 62.245049 63.436951 63.025417 59.149223 56.980419 54.757355 55.533268 60.360874 71.018311 79.332535 80.310852 72.878975 66.310799 61.379597 55.041359 53.888878 58.580906 63.903694 66.252464 62.86974 57.967091 56.534199 58.167168 61.371769 67.163963 73.214111 75.56868 72.958221 67.615768 60.530403 57.425072 57.667065 57.569679 56.593544 56.19474 57.046074 55.597363 52.790134 51.152885 49.592571 48.743458 47.776791 47.002106 46.534508 46.117886 45.769516 45.408661 44.759014 45.016495 45.214928 44.658222 44.719982 45.278194 44.672287 44.330505 43.05262 41.103909 40.860283 42.096367 43.983135 45.945892 48.256058 49.443218 49.857597 50.571552 51.464714 52.863388 54.755188 56.669285 59.832188 63.109505 62.433704 61.742306 62.647625 65.648796 70.161346 71.354836 70.39846 70.865959 74.929893 76.819481 78.468269 81.674568 85.250443 89.108009 94.196548 100.243767 102.893181 101.23542 92.203201 91.813141 92.134773 97.048874 102.332886 103.469315 109.778809 115.904678 115.119865 114.428246 115.143829 120.784081 121.621674 119.211128 122.391006 121.379356 120.519203 -9999 -9999 -9999 -9999 -9999 -9999 -9999 -9999 -9999 -9999 -9999
-9999 -9999 130.557678 131.363983 130.993134 130.400986 128.236877 117.625755 114.271996 112.809837 110.624062 106.805885 102.562584 99.741379 98.172127 99.344078 98.536369 97.964905 95.618004 92.303993 90.142517 85.466858 81.20343 77.721489 75.073547 72.645805 70.692688 69.020889 68.051003 67.3265 66.509254 65.761665 65.17115 64.50869 63.499325 62.302841 60.984806 60.025249 60.015686 60.377823 61.585163 61.123154 60.162468 60.857521 61.994595 61.628063 60.627934 61.278522 63.192879 64.590111 65.357277 66.543938 68.769226 69.159424 63.68956 58.790562 56.636665 55.084126 57.209232 65.46582 74.278778 80.019424 78.026314 70.239014 64.316498 58.693268 53.973442 59.909817 65.050011 68.328682 70.278847 65.513275 59.871529 59.360043 61.706669 66.079597 72.255516 79.986244 79.580437 72.133209 65.346397 59.695152 58.670925 61.970985 61.089882 58.277336 57.762135 59.317928 58.696609 56.10611 53.798805 51.598389 49.884125 48.747841 48.314632 47.933601 47.549328 47.170086 46.691235 45.883354 46.061981 46.553379 46.187115 45.877819 46.801212 46.79884 46.825577 45.994076 43.437038 40.896099 41.525017 44.481758 47.191799 46.945625 48.68071 50.169987 50.856876 53.001183 54.748486 55.843388 56.099678 57.61116 60.423996 59.863705 60.934303 63.852436 68.228058 72.925789 76.102844 76.975983 76.345688 75.727982 77.972809 81.053108 84.924095 89.920372 92.107033 93.349037 95.795021 100.132393 100.346069 92.847633 88.203171 90.956657 94.427116 94.344215 97.904655 104.874672 111.564087 106.420891 104.19313 110.982735 118.458588 119.816605 114.782707 114.586067 115.016586 116.132454 110.769852 -9999 -9999 -9999 -9999 -9999 -9999 -9999 -9999 -9999 -9999
-9999 -9999 114.230614 118.659996 123.774414 131.585556 133.59697 124.651016 120.084885 115.406906 110.799438 106.12809 101.778252 97.989906 93.719955 91.847794 90.097656 88.987526 87.626137 83.875931 81.631416 80.261894 78.874283 76.059998 73.264374 70.442291 69.22818 68.571808 67.50042 66.64743 65.810379 64.981804 64.206154 63.450066 62.559608 61.600033 60.793392 60.488251 60.551403 61.000191 62.687321 63.014633 62.139698 62.636295 63.731533 63.842911 63.050209 63.334484 64.309975 66.399452 67.963951 69.85952 72.032951 69.544205 63.032391 58.570877 56.571877 55.652069 59.47924 70.994781 78.734001 80.432335 75.760544 68.843941 62.64019 55.906097 56.285206 63.174477 69.076576 71.601967 71.314095 67.033035 62.389736 63.57637 67.196083 71.906731 76.003525 81.257904 78.421387 70.219444 64.103897 60.116268 61.124393 67.343025 66.74437 60.021317 59.105858 61.675373 61.384975 58.335098 56.214432 53.783504 51.203426 49.973396 49.859833 49.404243 49.162407 48.844856 48.13702 47.151501 47.079643 48.169849 47.983829 47.165771 48.008545 48.690041 49.254688 48.560436 45.7323 42.186718 41.148197 44.747272 49.026741 50.384544 52.509693 53.956001 54.618973 56.318497 57.850662 60.010315 60.555542 59.015396 59.678886 60.633396 62.2178 64.883911 68.515739 73.232094 78.989944 81.413246 81.49128 81.600822 82.421074 83.819885 86.542953 87.839104 86.757797 87.049339 90.330635 94.842598 94.808754 90.93335 86.393494 89.11628 89.261536 89.455284 94.34626 103.996552 109.470757 101.598587 101.808281 110.595924 116.263535 115.992935 111.717468 108.884155 110.185478 112.752991 111.562553 -9999 -9999 -9999 -9999 -9999 -9999 -9999 -9999 -9999 -9999
-9999 -9999 101.93985 106.992584 115.748474 118.533218 115.979042 110.916161 107.62793 105.087883 104.995117 101.068153 100.40686 99.884064 94.227997 88.774399 85.481941 83.412811 81.87719 79.379074 78.121216 79.115318 80.007454 77.829781 75.693726 73.203041 71.447128 69.734383 66.87352 65.85215 65.122742 64.223793 63.211868 62.734425 62.118912 61.649494 61.353329 61.294865 61.383099 62.744999 64.12468 64.832756 64.169273 63.885284 65.12674 65.979301 65.588005 66.147514 66.428604 67.470299 69.665054 73.46521 73.815666 69.037979 62.011868 58.627064 56.89249 56.20079 62.48106 74.745033 80.561958 79.128983 73.73687 67.863419 59.072044 55.526066 58.820889 64.874062 70.482773 71.892555 70.872063 67.902336 67.006149 68.194168 72.85096 78.512047 84.705338 83.81778 76.957703 69.367912 64.220551 62.344246 66.204803 70.399597 68.411369 61.28088 60.405884 64.34549 66.627831 61.943153 57.934517 55.756493 53.364151 52.279263 51.947224 50.843861 50.675762 50.254395 49.522964 48.34864 48.124329 49.883804 49.646927 48.565525 48.774063 49.596756 50.102081 49.569088 46.794762 43.557659 41.344025 42.318443 46.872692 51.16711 54.642021 57.674309 58.875374 59.919834 60.640667 63.023518 64.86319 63.115124 64.311928 66.792091 68.131195 67.542572 67.783829 70.920357 77.996071 81.847694 81.908997 81.437263 81.572182 82.395416 83.902809 82.80719 81.448402 84.136421 87.814751 88.665054 88.211273 85.892555 83.38839 85.114441 88.818855 91.978226 95.997452 102.80468 104.451492 98.277725 100.39962 108.217903 112.992096 110.259659 110.692253 106.291336 108.169052 110.556763 109.304695 -9999 -9999 -9999 -9999 -9999 -9999 -9999 -9999 -9999 -9999
-9999 -9999 95.959373 100.1903 102.94352 103.613625 101.108719 102.005081 98.689163 97.341484 99.6633 96.583626 97.213364 100.779099 98.445396 92.480156 87.925056 83.011543 79.221886 77.068115 75.915794 78.121361 80.678909 80.696465 78.927734 75.266281 71.720352 69.39785 65.659843 65.116318 64.439903 63.92654 63.456654 62.701332 62.635136 62.466518 62.232216 62.076008 62.383797 63.896477 65.538513 66.37561 65.507301 65.190147 66.657486 67.854591 68.162086 69.553238 69.256828 69.957657 73.45311 77.54306 72.780869 67.394699 62.731873 59.906834 57.23494 57.071934 64.819168 75.393036 80.484589 78.173973 72.366089 65.276993 56.87109 56.990456 61.194057 65.795105 69.351021 70.677696 72.108177 72.715462 73.39595 73.863487 77.594376 86.109116 91.807816 86.020981 75.710823 69.098907 64.228859 65.128906 69.277885 70.757622 67.845497 67.069611 65.537766 66.596619 71.170753 68.053467 61.444092 57.684227 55.49823 54.895245 53.999836 52.867008 52.595688 51.938004 51.052036 49.65329 48.946224 50.351704 50.170826 49.501377 49.32552 49.493256 49.464569 48.711044 46.555099 44.367691 42.456722 41.193634 42.44323 47.286575 53.087906 59.381733 61.666622 63.10424 64.500359 67.091949 69.328293 68.971184 68.025337 72.019859 75.131256 73.409119 70.300278 72.983521 77.236168 81.38414 82.076324 81.496994 80.818542 79.838303 80.324097 78.031891 78.369957 80.864555 82.392715 83.086235 82.891815 81.695869 81.964798 88.72364 95.604416 100.076378 101.615555 102.415924 101.378319 95.555862 100.157387 106.777298 110.651276 106.5513 106.281891 102.519295 106.579056 110.427246 -9999 -9999 -9999 -9999 -9999 -9999 -9999 -9999 -9999 -9999 -9999
-9999 -9999 90.159386 90.202805 89.961319 91.644997 90.521759 92.411552 93.13636 92.535812 93.118225 90.010445 92.956833 95.970253 95.529182 95.704918 91.831917 86.407158 79.657074 76.592331 73.897995 75.436043 79.430885 79.720512 75.47596 72.211166 69.080116 67.341835 65.961426 65.318497 64.746262 64.409058 64.111229 63.864094 63.827808 63.559162 63.158474 62.845169 63.064781 65.010765 67.105545 67.889801 66.720909 66.883232 68.832748 70.440529 73.027832 75.207794 72.727097 74.286331 78.603645 80.376953 71.422729 67.023842 63.516415 59.914036 57.410141 61.366077 74.879097 80.241638 80.760216 77.908783 71.780266 66.142685 61.149029 57.938732 60.56493 63.708775 66.66288 71.127045 77.116203 81.463463 82.095215 81.156906 80.72718 90.480606 91.786415 83.254852 74.039322 68.106453 65.635002 67.271469 70.943245 72.207359 70.577477 72.072357 69.765442 69.536102 72.49102 75.384712 70.918991 62.442478 58.067623 57.149475 55.603664 54.869808 54.437584 53.772877 52.304398 50.416767 49.565144 50.147125 50.379837 50.119183 49.718548 49.238857 48.625217 47.703972 46.22364 44.869968 43.736084 42.212406 40.945339 41.113621 46.003418 56.294662 61.13789 64.110687 66.617264 69.819565 74.285728 73.43119 70.410439 74.672356 80.525925 80.280304 77.347038 78.096283 80.950035 81.633553 81.492065 79.997337 78.415092 75.40403 74.395111 73.48085 75.43161 77.200294 77.665047 77.96286 78.910896 79.613449 83.16024 90.022804 96.77198 100.991341 102.108582 102.322609 98.176888 92.516975 98.948097 105.199661 108.493484 103.5308 101.137993 100.291512 106.426971 111.037979 -9999 -9999 -9999 -9999 -9999 -9999 -9999 -9999 -9999 -9999 -9999
